# .PCD v0.7 - Point Cloud Data file format
VERSION 0.7
FIELDS x y z intensity
SIZE 4 4 4 4
TYPE F F F F
COUNT 1 1 1 1
WIDTH 1385
HEIGHT 1
VIEWPOINT 0 0 0 1 0 0 0
POINTS 1385
DATA ascii
-11.637314 5.3147006 2.9536073 107
-11.624808 5.3652902 2.9558568 102
-11.669043 5.3857059 2.9671044 111
-11.675925 5.4172349 2.9716034 111
-11.808506 5.4787478 3.0053461 111
-12.042341 5.6458874 3.0705819 109
-12.095275 5.6707044 3.084079 109
-12.087018 5.7111273 3.0863285 111
-12.113447 5.7236152 3.0930769 111
-12.096222 5.7599297 3.0930769 111
-12.087424 5.7557406 3.0908275 111
-12.149165 5.8299155 3.111073 110
-12.333642 5.9184394 3.1583128 105
-12.473727 6.031765 3.1988039 103
-12.298287 5.9469299 3.1538138 107
-12.157763 5.9240456 3.1223207 111
-9.8658848 4.8439732 2.5374479 112
-9.8658848 4.8439732 2.5374479 117
-9.8600416 4.8778696 2.5396974 114
-9.9473763 4.9210749 2.5621924 112
-9.9799089 4.9869576 2.5756896 109
-9.790844 4.9292436 2.5306993 114
-9.7995462 4.9336252 2.532949 115
-9.810771 4.9762244 2.5396974 112
-10.064771 5.1430788 2.6094322 111
-10.014643 5.1554112 2.6004343 112
-9.8760319 5.0840559 2.5644419 112
-9.7136898 5.037405 2.5262003 114
-9.7309895 5.0463762 2.5306993 114
-9.8280773 5.1341972 2.559943 112
-9.7935324 5.1161509 2.550945 111
-9.6056862 5.0547585 2.5059547 114
-9.7264042 5.1182833 2.5374479 112
-9.8143139 5.2021995 2.5644419 112
-9.6851778 5.1337495 2.5306993 112
-9.5958405 5.1356673 2.5127032 115
-9.6387939 5.1586556 2.5239508 115
-9.6833124 5.2199135 2.5396974 115
-9.8119659 5.2892656 2.5734401 114
-9.7703648 5.3047299 2.5666916 111
-9.6847353 5.2582383 2.5441964 112
-9.6518192 5.2779188 2.5396974 115
-9.6774664 5.2919436 2.5464458 114
-9.6103373 5.2927489 2.532949 112
-9.6188717 5.2974496 2.5351985 111
-9.628499 5.3404603 2.5419469 112
-9.6540613 5.3546386 2.5486956 112
-9.5018482 5.3075509 2.5127032 114
-9.4167824 5.260035 2.4902081 117
-9.4094524 5.2930384 2.4924576 115
-9.596283 5.3981352 2.5419469 111
-9.8089495 5.5565686 2.6026838 111
-9.7241697 5.508543 2.5801885 111
-9.6682234 5.5280499 2.5711906 114
-9.7443514 5.571578 2.5914361 115
-9.7078419 5.5764952 2.5846877 115
-9.6571484 5.5473752 2.5711906 114
-9.618022 5.5761852 2.5666916 112
-9.6517401 5.5957336 2.5756896 114
-9.6349096 5.6246638 2.5756896 115
-9.6264944 5.6197515 2.5734401 114
-9.5843925 5.6337924 2.5666916 112
-9.5843925 5.6337924 2.5666916 111
-9.6009884 5.6823716 2.5756896 111
-9.6261435 5.6972599 2.582438 109
-9.634119 5.7410765 2.5891867 112
-9.6257496 5.7360883 2.5869372 115
-9.6027279 5.7745452 2.5869372 115
-9.6110783 5.7795668 2.5891867 111
-9.5994997 5.7987771 2.5891867 85
-8.9353218 5.6320066 2.4384694 31
-8.975976 5.6953292 2.454216 112
-9.0335674 5.7318711 2.4699626 114
-8.8464403 5.6628962 2.4249723 118
-8.8464403 5.6628962 2.4249723 115
-8.9006643 5.7227345 2.4429684 112
-9.0317974 5.8070469 2.4789605 111
-9.0575447 5.8749413 2.4924576 120
-8.8123045 5.7158728 2.4249723 111
-8.8335114 5.7547603 2.4339705 112
-8.8906593 5.7919908 2.449717 112
-8.8185644 5.7953997 2.4362199 112
-8.8918486 5.8435607 2.4564655 91
-8.7744284 5.7915549 2.4272218 77
-8.7906923 5.80229 2.431721 114
-8.8404064 5.8860064 2.4519665 114
-8.8728485 5.9076061 2.4609644 115
-8.8793688 5.9504714 2.4677131 112
-8.9279337 5.983017 2.4812102 112
-8.8695555 5.9825311 2.4699626 115
-8.8695555 5.9825311 2.4699626 114
-8.8596287 6.0145855 2.4722121 109
-8.8838139 6.031004 2.4789605 109
-8.8254557 6.0301433 2.4677131 114
-8.7530499 5.9806709 2.4474676 112
-8.512435 5.8663502 2.3867307 111
-8.4402275 5.8165884 2.3664851 67
-8.7730923 6.071897 2.4632142 70
-8.7971277 6.0885324 2.4699626 109
-8.7727032 6.123672 2.4699626 112
-8.6928062 6.0679011 2.4474676 114
-8.4652328 5.9342613 2.3867307 112
-8.6487389 6.062902 2.4384694 112
-8.7039795 6.153698 2.4609644 112
-8.7358036 6.176198 2.4699626 109
-8.8204451 6.2758117 2.4992063 111
-8.8601408 6.3040557 2.5104537 112
-8.8808002 6.3589706 2.5217013 114
-8.8887224 6.3646431 2.5239508 114
-8.8537779 6.3798881 2.5194519 114
-8.8300629 6.3627992 2.5127032 115
-8.8188229 6.3949804 2.5149529 114
-8.8188229 6.3949804 2.5149529 114
-8.7853069 6.4244533 2.5127032 114
-8.8010378 6.435956 2.5172024 109
-8.7645874 6.4362435 2.5104537 48
-8.7174654 6.4016404 2.4969566 100
-8.6917896 6.4364586 2.4969566 114
-8.683959 6.4306602 2.4947071 115
-8.647624 6.4305725 2.4879587 111
-8.686718 6.4596438 2.4992063 112
-8.7075834 6.5294118 2.5127032 115
-8.7621517 6.5703301 2.5284498 114
-8.734623 6.5907183 2.5262003 111
-8.4935074 6.4087839 2.4564655 84
-8.2414341 6.2574706 2.3889802 111
-8.1793518 6.2103333 2.3709841 115
-8.1529408 6.2289281 2.3687346 115
-8.1219711 6.2052665 2.3597364 104
-8.0878687 6.2177272 2.3552375 111
-8.0801439 6.2117887 2.352988 115
-8.1077137 6.2717714 2.3664851 118
-8.1154213 6.2777333 2.3687346 117
-8.0888624 6.2960668 2.3664851 112
-8.0888624 6.2960668 2.3664851 114
-8.0636139 6.3283715 2.3664851 114
-8.0636139 6.3283715 2.3664851 114
-8.0675325 6.3706493 2.3732336 112
-8.0369453 6.3464952 2.3642356 112
-8.0178699 6.3705773 2.3642356 114
-8.0254984 6.3766389 2.3664851 112
-7.9911113 6.3885183 2.3619862 87
-7.9302263 6.3398438 2.3439901 12
-7.8883944 6.3452845 2.3372414 94
-7.9187636 6.3697128 2.3462396 114
-7.9602103 6.4424796 2.3642356 112
-7.9299145 6.4179602 2.3552375 61
-7.8728476 6.4109583 2.3439901 83
-7.9030695 6.4355683 2.352988 98
-8.2530413 6.7618327 2.4632142 95
-8.3058004 6.805059 2.4789605 112
-8.3304586 6.8671327 2.4924576 114
-8.3379774 6.8733301 2.4947071 109
-8.3323193 6.9107537 2.4992063 11
-8.2223864 6.8752751 2.4744616 15
-8.2448111 6.8940258 2.4812102 109
-8.24646 6.9375472 2.4879587 111
-8.2166357 6.9124565 2.4789605 109
-8.2032986 6.9433703 2.4812102 34
-8.0283022 6.8783536 2.4407189 7
-8.0445328 6.934216 2.4519665 86
-8.0297718 6.9214926 2.4474676 91
-6.4409347 7.5945616 2.2989998 17
-6.4181218 7.6138501 2.2989998 100
-6.4055619 7.5989499 2.2945008 97
-6.3889937 7.6256013 2.2967503 112
-6.3827362 7.6181326 2.2945008 111
-6.3660884 7.6447339 2.2967503 111
-6.3286777 7.5998092 2.2832532 112
-6.057343 7.3185139 2.1932728 114
-5.970366 7.2134275 2.1617796 118
-5.9548888 7.238831 2.1640291 112
-6.1405921 7.4645743 2.2315145 115
-6.2661915 7.6640019 2.2855027 63
-6.3031964 7.7092619 2.2989998 56
-6.2723088 7.7344127 2.2989998 111
-6.2845836 7.7495484 2.3034987 114
-6.2813163 7.7772627 2.3079977 109
-6.2200947 7.7014608 2.2855027 15
-5.7871823 7.2243757 2.1370351 10
-5.7871823 7.2243757 2.1370351 21
-5.4316921 6.8224478 2.0133119 5
-5.3770719 6.7538424 1.9930663 83
-5.3567863 6.7699432 1.9930663 114
-5.3446941 6.7546611 1.9885674 114
-5.3304291 6.7783237 1.9908168 114
-5.3304291 6.7783237 1.9908168 115
-5.30407 6.7866073 1.9885674 118
-5.30407 6.7866073 1.9885674 115
-5.2717323 6.7870989 1.9840683 92
-6.0611191 7.950068 2.3079977 23
-6.0729342 7.9655652 2.3124969 112
-6.0410233 7.9897933 2.3124969 114
-6.0175176 7.9587045 2.3034987 66
-5.7495685 7.6360154 2.2067699 61
-5.7671509 7.6593671 2.2135184 118
-5.7189784 7.6589527 2.2067699 120
-5.7189784 7.6589527 2.2067699 112
-5.6727505 7.6447759 2.1977718 27
-5.9009161 8.0696926 2.3079977 57
-5.9066677 8.0775576 2.3102474 109
-5.8732939 8.0657244 2.3034987 25
-5.8523922 8.1049528 2.3079977 27
-5.8809128 8.1444502 2.3192453 111
-5.8646121 8.1561956 2.3192453 111
-5.8361707 8.116641 2.3079977 12
-3.4143019 7.5563197 1.9143335 36
-3.4102898 7.5474405 1.912084 97
-3.3840494 7.5699167 1.9143335 109
-3.3800728 7.5610213 1.912084 109
-3.3613243 7.5800347 1.9143335 111
-3.3573744 7.5711274 1.912084 111
-3.3267999 7.5633273 1.9075849 100
-3.3385692 7.5900846 1.9143335 24
-3.087131 7.6537714 1.9053354 11
-3.0569205 7.6449041 1.9008365 90
-3.0605383 7.6539512 1.9030859 109
-3.0375626 7.6630983 1.9030859 109
-3.0267911 7.6359243 1.8963374 109
-2.9997776 7.6570425 1.8985869 109
-3.006886 7.6751871 1.9030859 109
-2.98032 7.6750903 1.9008365 59
7.055305 11.834049 3.1808078 6
7.0957904 11.821185 3.1830573 21
6.985467 11.637392 3.1335683 26
6.9649105 11.524653 3.1088235 75
6.9850693 11.55801 3.1178217 82
6.7065706 10.997568 2.9738529 68
6.554379 10.748002 2.9063675 95
6.5916915 10.736594 2.908617 95
6.6120834 10.769809 2.9176152 103
6.6341171 10.733347 2.9131162 109
6.6751003 10.799654 2.9311123 111
6.8104234 10.945038 2.9761024 115
6.7692418 10.878855 2.9581063 105
6.7501225 10.775924 2.9356112 112
6.7190876 10.726379 2.9221141 111
6.7668281 10.730899 2.9288628 111
6.7980118 10.780351 2.9423597 107
6.856432 10.801039 2.9536073 107
6.8355441 10.768134 2.9446094 109
6.852078 10.722947 2.9378607 111
6.852078 10.722947 2.9378607 111
6.8315616 10.597179 2.9108667 109
6.7154145 10.417011 2.8613775 111
6.6673899 10.297234 2.8321338 111
6.6726856 10.305413 2.8343832 111
6.7671385 10.360216 2.8568783 111
7.0229044 10.751783 2.964855 61
7.3548908 11.186598 3.0908275 112
7.3870082 11.235448 3.1043246 113
7.1141748 10.75008 2.9761024 68
6.8721962 10.384432 2.8748746 100
6.7736788 10.169144 2.8208861 102
6.7520719 10.136706 2.8118882 97
6.7878776 10.124497 2.8141377 111
6.8095813 10.15687 2.8231356 111
6.8992791 10.202192 2.8433814 80
6.8174047 10.081122 2.8096387 90
6.8266044 10.051347 2.8051395 109
6.7992325 10.011045 2.7938921 100
6.8282089 9.9676905 2.7893932 102
6.8171954 9.9516134 2.784894 93
6.8867893 10.010206 2.8051395 52
6.9696293 10.130617 2.8388822 98
7.0267606 10.126674 2.8456309 109
6.9101105 9.9585629 2.7983911 95
6.8506951 9.8099709 2.762399 102
6.8785892 9.8499136 2.7736466 103
6.9753399 9.9248953 2.8006406 100
7.025764 9.9966412 2.8208861 102
7.0613489 9.9834738 2.8231356 89
6.9713235 9.8561945 2.7871435 92
7.0121617 9.8511124 2.7916427 83
7.0799665 9.9463692 2.8186367 65
7.1651525 9.9812927 2.8366327 101
7.2276559 10.068362 2.8613775 109
7.2534757 10.06179 2.863627 91
7.2876635 10.109215 2.8771241 47
7.5343041 10.363705 2.9581063 90
7.138968 9.8199053 2.8028901 90
7.1241221 9.7583895 2.7893932 109
7.451602 10.206961 2.9176152 87
7.3768363 10.020141 2.8726249 78
7.1977587 9.7768946 2.8028901 103
7.2230906 9.7703152 2.8051395 109
7.2752218 9.8408308 2.8253853 111
7.3319979 9.8350868 2.8321338 109
7.3436451 9.8507099 2.8366327 109
7.4199409 9.8909893 2.8546288 89
7.6421299 10.187174 2.9401102 109
7.5846004 10.04755 2.9063675 117
7.5258961 9.9697828 2.8838725 111
7.5480103 9.9163399 2.8771241 111
7.6247296 10.017132 2.9063675 109
7.6210809 9.9708967 2.8973696 109
7.5264091 9.8470345 2.8613775 109
7.547893 9.7936974 2.8546288 111
7.5776324 9.8322849 2.8658764 111
7.5913186 9.8094044 2.863627 111
7.6211352 9.8479338 2.8748746 92
7.7383895 9.9172335 2.9041181 61
8.0740595 10.347416 3.0300908 64
8.2133732 10.461096 3.0705819 105
8.195322 10.438105 3.0638335 105
8.1601582 10.329369 3.0390887 108
8.1239176 10.283494 3.0255916 91
8.43363 10.609944 3.1290691 47
8.4578819 10.640454 3.1380672 32
8.1550426 10.196519 3.0143442 89
8.161129 10.204128 3.0165937 111
8.1489439 10.126462 3.0008471 111
8.0878572 10.050551 2.9783521 111
8.1486292 10.064106 2.9895995 111
8.142498 10.056534 2.98735 111
8.1826591 10.023883 2.98735 111
8.1210423 9.9484024 2.964855 111
8.1470995 9.9396753 2.9671044 111
8.221221 10.030105 2.9940984 111
8.2985163 10.042206 3.0075955 109
8.2985163 10.042206 3.0075955 60
12.938159 12.829602 4.2065849 6
12.951997 12.843324 4.2110839 73
12.976589 12.79073 4.2065849 94
12.983529 12.79757 4.2088342 79
13.014903 12.751742 4.2065849 62
13.021863 12.758562 4.2088342 6
13.359262 12.984813 4.301064 23
13.371204 12.944513 4.2965651 30
13.378204 12.951291 4.2988148 33
13.401792 12.870678 4.2898164 21
13.422874 12.890925 4.2965651 6
13.434547 12.850584 4.2920661 19
13.427506 12.843848 4.2898164 82
13.302073 12.622364 4.2335787 30
13.160712 12.488226 4.1885886 31
13.254823 12.502172 4.2065849 52
13.545436 12.776285 4.2988148 66
13.619245 12.768912 4.3100624 81
13.64057 12.788906 4.3168106 83
13.641672 12.68779 4.301064 90
13.655942 12.701062 4.305563 98
13.674169 12.667103 4.3033137 40
13.659873 12.65386 4.2988148 34
13.674506 12.566154 4.2875671 59
13.688855 12.579341 4.2920661 12
13.771487 12.604567 4.3100624 28
13.757113 12.59141 4.305563 47
13.829009 12.555929 4.3123116 45
13.807367 12.536281 4.305563 9
34.324997 5.7574096 8.0352516 5
33.947929 5.5895066 7.9430218 7
33.534515 5.5214386 7.846293 7
33.098839 5.3477659 7.7405658 8
32.665985 5.2778301 7.639338 8
32.277481 5.1157475 7.5448585 8
27.511774 4.2476768 6.4268517 7
27.078442 4.1807723 6.3256235 9
30.332922 4.6211543 7.0837088 11
29.984905 4.4454856 6.9982271 11
29.628286 4.3926144 6.9149952 11
29.318853 4.2868295 6.8407617 10
29.000694 4.2403102 6.7665277 6
28.621906 4.0680585 6.6742978 5
28.293917 4.021441 6.5978146 5
27.877327 3.9053659 6.498836 6
27.65539 3.8742743 6.4470973 14
27.40033 3.7268527 6.3841109 15
27.110685 3.6874566 6.3166256 17
26.812548 3.5650129 6.2446413 15
26.542105 3.5290546 6.1816549 12
26.282022 3.4142656 6.1186686 6
25.972822 3.3740978 6.0466843 7
25.705753 3.2348988 5.9814487 7
25.444733 3.2020512 5.9207115 7
25.190001 3.1188295 5.8599749 7
24.938583 3.0877011 5.8014879 7
24.699196 2.9577999 5.7430005 7
24.467007 2.9299943 5.6890121 7
24.221218 2.8514352 5.6305251 7
23.988974 2.8240943 5.5765367 8
23.796768 2.7050056 5.5292969 8
23.574099 2.6796944 5.4775581 8
23.356689 2.6076751 5.4258194 8
23.124285 2.581728 5.3718309 8
22.901918 2.4641933 5.317843 8
22.659725 2.4381337 5.2616053 12
22.509518 2.3764412 5.2256131 28
22.3351 2.3580272 5.185122 33
22.121395 2.2460308 5.1333833 32
21.927519 2.226346 5.0883927 34
21.749859 2.1424055 5.0456519 35
21.585014 2.126168 5.0074105 36
21.377905 2.0410302 4.957921 39
21.203312 2.0243611 4.9174299 40
21.026878 1.9226742 4.8746896 42
20.861923 1.907591 4.8364477 31
20.710419 1.8519778 4.8004556 15
20.535728 1.8363566 4.7599645 12
20.368158 1.7392769 4.7194729 11
20.222532 1.7268417 4.6857305 11
20.051167 1.6718204 4.6452394 12
19.905516 1.6596764 4.6114964 12
19.737158 1.5661678 4.5710053 14
19.581747 1.5538357 4.5350132 13
19.419666 1.5018966 4.4967718 14
19.283661 1.4913782 4.4652786 14
19.153425 1.4042573 4.4337854 14
19.027096 1.3949953 4.4045415 14
18.903502 1.3479291 4.375298 14
18.786873 1.3396128 4.3483038 10
18.78236 1.2638007 4.3460546 7
18.762917 1.2624924 4.3415551 10
18.718 1.2030731 4.330308 21
18.669382 1.1999483 4.3190603 17
18.624271 1.1409559 4.3078127 11
18.420036 1.1284441 4.2605729 11
18.249302 1.044731 4.2200818 71
18.229847 1.0436172 4.2155828 98
18.231897 1.0071555 4.2155828 23
18.192982 1.0050057 4.2065849 5
16.904341 0.83211631 3.9073999 9
16.858864 0.76229185 3.8961523 79
16.780994 0.75877082 3.8781562 92
16.675398 0.72058016 3.8534117 92
16.558582 0.7155323 3.8264174 95
16.463949 0.64547533 3.8039224 94
16.347115 0.64089477 3.7769282 96
16.251591 0.58832562 3.7544332 96
16.14448 0.5844481 3.7296884 99
16.048779 0.53277922 3.7071934 98
15.951394 0.52954632 3.6846983 98
15.84625 0.46260902 3.6599536 100
15.758594 0.46005002 3.639708 98
15.662082 0.42588341 3.617213 101
15.55494 0.42297003 3.5924683 100
15.468838 0.35871404 3.5722227 104
15.361686 0.35622925 3.5474782 102
15.284435 0.32385391 3.5294821 103
15.18702 0.32178983 3.5069869 102
15.110249 0.25969982 3.4889908 109
15.003083 0.25785798 3.4642463 105
14.945113 0.22696358 3.4507492 109
14.85743 0.22563198 3.4305036 109
14.75104 0.16500179 3.4057589 109
14.682838 0.1642389 3.3900125 109
14.585705 0.13397795 3.3675172 109
14.527245 0.13344096 3.3540201 109
14.430226 0.074825831 3.3315251 109
14.362021 0.074472159 3.3157785 109
14.274487 0.03119419 3.2955329 109
17.995163 -0.035990372 4.8217988 17
17.879251 -0.035758551 4.7907405 17
17.763153 -0.088816509 4.7596822 18
17.627926 -0.088140361 4.7234478 17
17.530993 -0.14025094 4.6975656 18
17.405426 -0.13924637 4.663919 20
17.269709 -0.18997446 4.6276846 25
17.144146 -0.18859321 4.594038 57
17.075647 -0.25615391 4.5759206 84
16.959749 -0.25441533 4.5448623 89
16.85297 -0.28652808 4.5163922 86
16.737076 -0.2845577 4.4853339 87
16.639233 -0.34947526 4.4594522 89
16.533005 -0.34724414 4.4309821 91
16.435324 -0.3945235 4.4051003 89
16.319445 -0.3917419 4.374042 91
16.211983 -0.43782994 4.345572 93
16.125082 -0.43548304 4.322278 91
16.027153 -0.48095891 4.2963963 79
15.92095 -0.47777182 4.2679262 76
15.803596 -0.52170807 4.2368679 90
15.726365 -0.51915848 4.2161622 95
15.628206 -0.56285864 4.1902804 99
15.541329 -0.5597297 4.1669865 101
15.443061 -0.60258496 4.1411047 102
15.356194 -0.59919542 4.1178112 102
15.266822 -0.65687823 4.0945172 104
15.189619 -0.65355647 4.073812 104
15.091786 -0.67958915 4.0479298 104
14.995292 -0.67524397 4.022048 106
14.924937 -0.73190778 4.0039306 105
14.838108 -0.72764975 3.9806368 109
14.75945 -0.75338525 3.9599314 109
14.672629 -0.74895358 3.9366376 109
14.602004 -0.80392098 3.9185205 109
14.524846 -0.79967308 3.8978148 109
14.445238 -0.83876455 3.8771093 109
14.358451 -0.83372521 3.8538156 109
14.269114 -0.87149715 3.8305218 109
14.211266 -0.86796403 3.8149927 111
14.121842 -0.90503395 3.7916989 111
14.044726 -0.90009177 3.7709935 111
13.820298 -0.92734802 3.7114651 112
13.685372 -0.91829443 3.6752305 114
13.682556 -0.95934635 3.6752305 112
13.721098 -0.96204877 3.6855831 111
13.660349 -0.99898064 3.670054 111
13.602548 -0.99475366 3.6545248 111
13.531046 -1.0439545 3.6364076 111
13.463632 -1.0387534 3.6182902 111
13.403752 -1.0611048 3.602761 111
13.336349 -1.0557687 3.5846438 111
13.245384 -1.1018984 3.5613501 111
13.187629 -1.0970936 3.545821 111
13.126536 -1.1316735 3.5302918 111
13.059172 -1.1258657 3.5121744 111
12.978766 -1.1581699 3.4914689 112
12.940283 -1.1547357 3.4811161 112
12.87905 -1.1882268 3.4655869 112
12.811721 -1.1820151 3.4474697 112
12.731192 -1.2131149 3.4267642 112
12.673497 -1.2076174 3.4112351 112
12.621753 -1.2409068 3.398294 112
12.564075 -1.2352363 3.3827648 112
12.512263 -1.2680533 3.3698239 112
12.435383 -1.2602619 3.3491185 112
12.372606 -1.3039191 3.3335893 112
12.31497 -1.2978449 3.3180602 114
12.264329 -1.3173144 3.3051193 112
12.206705 -1.3111249 3.2895901 112
12.134164 -1.3524513 3.2714727 114
12.076566 -1.3460314 3.2559435 114
12.035459 -1.3658252 3.2455909 114
11.977873 -1.3592901 3.2300618 114
11.933967 -1.4026804 3.2197089 114
11.866815 -1.3947875 3.2015915 114
11.795448 -1.4222873 3.1834743 114
11.757089 -1.4176619 3.1731215 114
11.704851 -1.4470013 3.1601806 114
11.647334 -1.4398907 3.1446514 114
11.60463 -1.4699708 3.1342986 114
11.547134 -1.4626877 3.1187694 114
11.485221 -1.489867 3.1032403 114
11.446905 -1.4848965 3.0928876 114
11.375372 -1.5103313 3.0747702 114
11.241319 -1.4925328 3.0385356 111
10.987935 -1.4924489 2.9712427 115
11.035791 -1.4989491 2.9841835 111
11.134934 -1.5578016 3.0126536 112
11.154067 -1.5604783 3.0178301 115
11.093543 -1.5746386 3.002301 115
11.055289 -1.5692089 2.9919481 117
11.010693 -1.6078346 2.9815955 115
10.962903 -1.6008561 2.9686544 115
10.911904 -1.6157047 2.9557135 117
10.873684 -1.6100454 2.9453607 117
10.809861 -1.6448091 2.9298315 117
10.771664 -1.6389971 2.9194789 117
10.728518 -1.665378 2.909126 117
10.690338 -1.6594514 2.8987732 118
10.637609 -1.6839635 2.8858323 118
10.589908 -1.6764121 2.8728914 118
10.556223 -1.7035575 2.8651268 118
10.508543 -1.695863 2.852186 118
10.465283 -1.7211111 2.8418331 118
10.43669 -1.7164085 2.8340685 118
10.383862 -1.7397305 2.8211277 118
10.336229 -1.73175 2.8081865 120
10.302423 -1.7578769 2.800422 120
10.264336 -1.7513783 2.7900693 118
10.209673 -1.7841078 2.7771285 120
10.171613 -1.7774569 2.7667756 118
10.129991 -1.7910696 2.7564228 120
10.101455 -1.7860243 2.7486582 118
10.046705 -1.8178167 2.7357173 120
10.008686 -1.8109376 2.7253644 120
9.9747086 -1.8357106 2.7175999 120
9.9367104 -1.8287175 2.7072473 121
9.8932018 -1.8514122 2.6968944 121
9.8647184 -1.8460817 2.6891298 121
9.8211794 -1.8684465 2.6787772 121
9.7832232 -1.8612255 2.6684244 121
9.7396612 -1.8832319 2.6580715 121
9.701726 -1.8758969 2.6477189 121
9.658143 -1.897545 2.6373661 121
9.6297083 -1.8919585 2.6296015 123
9.5955725 -1.9151673 2.6218369 130
9.5955725 -1.9151673 2.6218369 142
9.5992498 -1.9458643 2.6244252 154
9.5992498 -1.9458643 2.6244252 156
9.6122913 -1.978548 2.6296015 157
9.6122913 -1.978548 2.6296015 157
9.6137533 -2.0189664 2.6321898 154
9.6137533 -2.0189664 2.6321898 151
9.6191454 -2.040194 2.6347778 151
9.6285944 -2.0421982 2.6373661 151
9.620348 -2.0806961 2.6373661 148
9.6297894 -2.0827382 2.6399543 151
9.6329327 -2.1136882 2.6425424 156
9.6423674 -2.1157584 2.6451306 154
9.6359768 -2.144676 2.6451306 154
9.6359768 -2.144676 2.6451306 154
9.648344 -2.1778278 2.6503069 153
9.6577663 -2.1799545 2.6528952 151
9.7641726 -2.2347786 2.6839535 141
10.234962 -2.3425307 2.8133631 135
10.481938 -2.4321735 2.8832443 153
10.474595 -2.4636083 2.8832443 148
10.483997 -2.4658198 2.8858323 148
10.495345 -2.50174 2.8910086 145
10.495345 -2.50174 2.8910086 145
10.497182 -2.5354826 2.8935969 145
10.497182 -2.5354826 2.8935969 147
10.496336 -2.5797563 2.8961852 145
10.505716 -2.5820618 2.8987732 147
10.519282 -2.6077163 2.9039497 147
10.519282 -2.6077163 2.9039497 147
10.518133 -2.6521342 2.9065378 145
10.527499 -2.654496 2.909126 144
10.528848 -2.6884561 2.9117143 142
10.538206 -2.6908457 2.9143023 142
10.539438 -2.7248662 2.9168906 142
10.539438 -2.7248662 2.9168906 144
10.540561 -2.758918 2.9194789 142
10.549905 -2.7613637 2.9220669 139
10.550911 -2.795475 2.9246552 141
10.550911 -2.795475 2.9246552 133
10.533147 -2.8246131 2.9220669 115
10.551806 -2.8296168 2.9272435 59
10.533948 -2.8587296 2.9246552 13
10.552592 -2.8637893 2.9298315 12
10.534638 -2.8928764 2.9272435 12
10.534638 -2.8928764 2.9272435 12
10.544526 -2.9296386 2.9324198 12
10.553833 -2.9322245 2.935008 11
10.551316 -2.9770391 2.9375961 13
10.579205 -2.9849081 2.9453607 12
10.579491 -3.0192831 2.9479489 13
10.588779 -3.0219338 2.9505372 14
10.607507 -3.0617225 2.9583018 17
10.635348 -3.0697584 2.9660664 22
10.690997 -3.1205962 2.9841835 75
10.681726 -3.1178896 2.9815955 71
10.663059 -3.1471865 2.9790072 21
10.681587 -3.1526551 2.9841835 26
10.681337 -3.1874478 2.9867718 48
10.699849 -3.1929719 2.9919481 43
10.69947 -3.2278469 2.9945364 42
10.69947 -3.2278469 2.9945364 95
10.689738 -3.2599306 2.9945364 88
10.67126 -3.2542956 2.9893599 24
10.67068 -3.28914 2.9919481 22
10.651542 -3.3182642 2.9893599 16
10.651542 -3.3182642 2.9893599 13
10.650753 -3.3531044 2.9919481 16
10.659966 -3.356005 2.9945364 15
10.655659 -3.4015553 2.9971244 12
10.655659 -3.4015553 2.9971244 13
10.663792 -3.4394369 3.002301 12
10.672985 -3.4424021 3.004889 12
10.680978 -3.4803908 3.0100656 12
10.680978 -3.4803908 3.0100656 12
10.679664 -3.5154381 3.0126536 12
10.670488 -3.5124178 3.0100656 13
10.733231 -3.5687947 3.030771 14
10.861552 -3.6114616 3.0670056 18
11.088743 -3.7239835 3.1342986 34
11.198623 -3.760885 3.1653569 59
11.233027 -3.8099768 3.1782978 80
11.251322 -3.8161821 3.1834743 85
11.267237 -3.859309 3.1912389 85
11.267237 -3.859309 3.1912389 86
11.273866 -3.8994081 3.1964152 88
11.292123 -3.9057229 3.2015915 91
11.289474 -3.9427664 3.2041798 91
11.289474 -3.9427664 3.2041798 89
11.286705 -3.9798291 3.206768 90
11.304924 -3.9862533 3.2119443 89
11.297985 -4.0346894 3.2145326 88
11.307081 -4.0379381 3.2171206 86
11.31309 -4.078393 3.2222972 86
11.31309 -4.078393 3.2222972 81
11.318958 -4.1189198 3.2274735 82
11.318958 -4.1189198 3.2274735 77
11.306551 -4.1528583 3.2274735 76
11.18868 -4.1095643 3.1938269 52
10.995161 -4.0759625 3.1420631 96
10.94082 -4.0558181 3.126534 109
10.928602 -4.0886221 3.126534 109
10.928602 -4.0886221 3.126534 109
11.006654 -4.1555066 3.152416 102
11.268718 -4.2544475 3.2274735 91
11.373246 -4.3329391 3.2611201 99
11.36422 -4.3295007 3.2585318 101
11.378228 -4.3739715 3.2662964 98
11.387244 -4.3774371 3.2688847 94
11.401077 -4.4220581 3.276649 91
11.401077 -4.4220581 3.276649 93
11.39229 -4.4711556 3.2792373 94
11.39229 -4.4711556 3.2792373 86
11.410278 -4.5045719 3.2870018 78
11.428247 -4.5116658 3.2921782 29
11.481871 -4.5860052 3.3128839 8
11.517752 -4.6003366 3.3232365 6
11.49494 -4.6312594 3.3206484 6
11.450142 -4.6132107 3.3077073 6
11.463097 -4.6584501 3.3154719 5
11.511633 -4.718462 3.3335893 5
11.515279 -4.7603564 3.3387656 6
11.506352 -4.7566662 3.3361776 6
11.527693 -4.8060312 3.3465302 6
11.509862 -4.7985973 3.3413539 14
11.495414 -4.8331056 3.3413539 41
11.513223 -4.8405929 3.3465302 71
11.507542 -4.878881 3.3491185 38
11.507542 -4.878881 3.3491185 9
11.519499 -4.9247727 3.356883 5
11.596047 -5.0400038 3.3879414 6
11.604906 -5.0438542 3.3905294 6
11.584638 -5.0902333 3.3905294 6
11.664227 -5.1252046 3.4138231 9
11.675294 -5.1719108 3.4215877 14
11.65763 -5.1640863 3.4164114 17
11.606807 -5.1832814 3.4060585 25
11.580347 -5.1714654 3.398294 54
11.582397 -5.2141132 3.4034705 89
11.582397 -5.2141132 3.4034705 85
11.566702 -5.248837 3.4034705 83
11.575499 -5.2528281 3.4060585 77
11.58604 -5.2995849 3.4138231 81
11.612391 -5.3116384 3.4215877 71
11.605176 -5.3504958 3.424176 69
11.613948 -5.3545399 3.4267642 61
11.615352 -5.3974986 3.4319406 55
11.624111 -5.4015694 3.4345288 56
11.625349 -5.4446106 3.4397051 54
11.634096 -5.4487076 3.4422934 53
11.620939 -5.499332 3.4448814 48
11.603477 -5.4910684 3.4397051 42
11.383127 -5.4146843 3.3775885 34
11.252287 -5.3524466 3.3387656 100
11.230787 -5.3974128 3.3387656 105
11.222081 -5.3932285 3.3361776 93
11.231932 -5.4395008 3.3439422 85
11.414494 -5.5279136 3.398294 48
11.666963 -5.6934547 3.478528 42
11.675644 -5.697691 3.4811161 48
11.684502 -5.7454786 3.4888806 49
11.701838 -5.754003 3.4940572 51
11.701834 -5.7976589 3.4992335 48
11.710489 -5.8019471 3.5018218 49
11.710315 -5.8456812 3.5069981 52
11.718957 -5.8499951 3.5095863 47
11.709984 -5.8894658 3.5121744 46
11.735872 -5.9024858 3.5199389 44
11.735344 -5.9463987 3.5251155 46
11.74396 -5.9507647 3.5277035 49
11.743261 -5.9947534 3.5328801 49
11.769071 -6.0079284 3.5406446 49
11.753531 -6.0593829 3.5432327 49
11.770701 -6.0682349 3.5484092 49
11.775695 -6.1006508 3.5535855 49
11.784271 -6.105094 3.5561736 48
11.776875 -6.1611376 3.5613501 48
11.793992 -6.1700926 3.5665264 46
11.79252 -6.2144532 3.5717027 46
11.801064 -6.2189565 3.574291 45
11.80795 -6.2679181 3.5820556 41
11.816482 -6.2724471 3.5846438 36
11.814648 -6.316977 3.5898201 30
11.814648 -6.316977 3.5898201 27
11.812653 -6.3615522 3.5949965 25
11.838165 -6.3752923 3.602761 23
11.827477 -6.4153833 3.6053493 27
11.852949 -6.4291997 3.6131139 27
11.842085 -6.4693604 3.6157022 23
11.850562 -6.4739914 3.6182902 28
11.849946 -6.535336 3.6260548 32
11.858404 -6.5400009 3.628643 31
11.879095 -6.5824313 3.6389959 30
11.912891 -6.6011577 3.6493485 37
11.877961 -6.6440411 3.6467605 36
11.903252 -6.6581874 3.6545248 35
11.906753 -6.6914449 3.6597013 32
11.915173 -6.6961775 3.6622894 29
11.812678 -6.700891 3.6389959 35
11.720261 -6.6484656 3.6105256 53
11.641551 -6.6500587 3.5924084 75
11.599615 -6.6261034 3.5794673 60
11.554565 -6.6464233 3.5717027 90
11.512702 -6.6223421 3.5587618 109
11.517858 -6.6713748 3.5665264 111
11.5095 -6.6665335 3.5639381 118
11.489449 -6.7010317 3.5639381 124
11.47276 -6.691299 3.5587618 121
11.444305 -6.7207956 3.5561736 121
11.435977 -6.7159042 3.5535855 121
11.432406 -6.7600145 3.5587618 120
11.449036 -6.7698474 3.5639381 121
11.438454 -6.8254886 3.5691147 120
11.455044 -6.8353877 3.574291 120
11.457919 -6.8682165 3.5794673 121
11.466205 -6.8731823 3.5820556 120
11.463414 -6.93399 3.5898201 121
11.479944 -6.9439888 3.5949965 121
11.482543 -6.9769659 3.600173 121
11.499053 -6.9869976 3.6053493 121
11.495717 -7.0480843 3.6131139 120
11.512187 -7.0581818 3.6182902 120
11.506272 -7.0862575 3.6208785 120
11.530946 -7.1014528 3.628643 120
11.527061 -7.1628141 3.6364076 120
11.543469 -7.1730103 3.6415839 120
11.530087 -7.2127309 3.6441722 120
11.554654 -7.2280989 3.6519368 120
11.541092 -7.2678776 3.6545248 120
11.557439 -7.278172 3.6597013 120
11.511078 -7.2972965 3.6519368 117
11.470287 -7.2714376 3.6389959 118
11.423994 -7.2902274 3.6312313 124
11.423994 -7.2902274 3.6312313 129
11.394742 -7.335865 3.6312313 130
11.386621 -7.330636 3.628643 127
11.388159 -7.3638844 3.6338193 121
11.453049 -7.4058442 3.6545248 117
11.552776 -7.5360341 3.695936 115
11.633678 -7.5888076 3.721818 117
11.634637 -7.6226468 3.7269943 117
11.650796 -7.633234 3.7321706 118
11.636287 -7.6904273 3.7373471 118
11.660461 -7.7064047 3.7451115 118
11.661121 -7.7403941 3.750288 118
11.669168 -7.7457361 3.752876 118
11.662171 -7.8084726 3.7606406 118
11.678224 -7.8192205 3.7658172 117
11.678744 -7.8704143 3.7735817 118
11.702774 -7.8866086 3.7813463 117
11.695049 -7.9325256 3.7865226 117
11.719031 -7.948792 3.7942872 117
11.703087 -8.0065126 3.7994635 117
11.711059 -8.0119667 3.8020518 117
11.718895 -8.0517826 3.8098164 117
11.75074 -8.0736618 3.8201692 117
11.726291 -8.1261024 3.8227572 117
11.750109 -8.1426077 3.8305218 117
11.765512 -8.1881618 3.8408747 117
11.773441 -8.1936798 3.8434627 117
11.764291 -8.2573557 3.8512273 117
11.780103 -8.2684546 3.8564038 117
11.779332 -8.3031282 3.8615801 117
11.803017 -8.3198233 3.8693447 117
11.793262 -8.3837585 3.8771093 115
11.801134 -8.3893547 3.8796976 117
11.815778 -8.4353905 3.8900502 117
11.839362 -8.4522276 3.8978148 115
11.821136 -8.5108042 3.9029913 115
11.844653 -8.5277357 3.9107559 115
11.842483 -8.5802326 3.9185205 115
11.850305 -8.5859003 3.9211085 115
11.847909 -8.638485 3.9288731 115
11.879128 -8.6612473 3.9392259 115
11.859953 -8.7201385 3.9444022 115
11.883299 -8.7373037 3.9521668 115
11.881342 -8.7725277 3.9573431 115
11.896883 -8.7840033 3.9625196 115
11.884895 -8.8488255 3.9702842 115
11.915886 -8.8718996 3.9806368 114
11.921327 -8.913065 3.9884014 114
11.936799 -8.924633 3.993578 114
11.91643 -8.9839382 3.9987543 114
11.939569 -9.0013828 4.0065188 114
11.960049 -9.0543957 4.0194597 114
11.975451 -9.0660563 4.0246363 114
11.962125 -9.1314678 4.0324006 114
11.977481 -9.1431904 4.0375772 114
11.982169 -9.1847553 4.0453415 114
12.005167 -9.2023849 4.0531063 114
11.99119 -9.2680531 4.0608706 114
12.02176 -9.2916803 4.0712237 114
12.00908 -9.3395634 4.0763998 114
12.031955 -9.3573532 4.0841646 114
12.026649 -9.4112654 4.091929 114
12.049471 -9.4291239 4.0996938 114
12.034407 -9.4951954 4.1074581 114
12.049573 -9.5071611 4.1126347 114
12.06082 -9.5552349 4.1229873 114
12.083533 -9.5732298 4.1307521 114
12.075332 -9.6456013 4.1411047 114
12.090425 -9.6576576 4.1462812 114
12.093692 -9.6999502 4.1540456 114
12.123832 -9.724124 4.1643987 114
12.10737 -9.7907629 4.172163 114
12.122392 -9.8029099 4.1773396 114
12.132756 -9.85149 4.1876922 112
12.147754 -9.8636675 4.1928687 112
12.138099 -9.9366541 4.2032213 112
12.167995 -9.9611282 4.2135739 112
12.160425 -10.01601 4.2213387 112
12.182793 -10.034433 4.2291031 112
12.182384 -10.095591 4.2394562 112
12.212133 -10.120244 4.2498088 112
12.196555 -10.169206 4.2549853 112
12.226231 -10.193949 4.2653379 112
12.210394 -10.242997 4.270514 112
12.247396 -10.274036 4.2834554 112
12.231281 -10.323193 4.2886314 112
12.253426 -10.341883 4.2963963 112
12.251797 -10.403605 4.3067489 112
12.273885 -10.422361 4.3145137 112
12.268786 -10.502781 4.3274546 112
12.2908 -10.521626 4.3352189 112
12.291708 -10.565075 4.3429837 112
12.313684 -10.583964 4.3507481 112
12.300449 -10.658436 4.3611007 112
12.322349 -10.677412 4.3688655 112
12.330119 -10.727396 4.3792181 112
12.35198 -10.746416 4.3869829 112
12.337944 -10.821215 4.3973355 112
12.374253 -10.853061 4.4102764 111
12.388371 -10.997649 4.4387465 65
12.410042 -11.016887 4.4465113 111
12.391344 -11.066936 4.4516878 111
12.405753 -11.079804 4.4568639 102
12.401197 -11.142795 4.4672165 36
10.647985 -9.6253786 3.846051 11
12.498477 -11.366474 4.5267453 109
12.492827 -11.429999 4.5370979 111
12.507081 -11.44304 4.5422745 111
12.515337 -11.519759 4.5578032 111
12.529552 -11.532843 4.5629797 111
12.518723 -11.615719 4.5759206 111
12.554127 -11.648568 4.5888615 111
12.559075 -11.69999 4.5992146 111
12.580277 -11.719742 4.6069789 111
12.561463 -11.796419 4.617332 111
12.596669 -11.82948 4.6302729 111
12.582188 -11.887117 4.6380372 111
12.617294 -11.920284 4.6509781 111
12.602481 -11.978046 4.6587429 111
12.637487 -12.011318 4.6716838 111
12.622341 -12.069203 4.6794481 111
12.657248 -12.102581 4.6923895 111
12.648728 -12.167283 4.7027421 111
12.676574 -12.194069 4.7130947 109
12.6677 -12.258912 4.7234478 111
12.695464 -12.285781 4.7338004 109
12.706997 -12.370978 4.7519178 111
12.72776 -12.391192 4.7596822 109
12.718133 -12.456355 4.7700348 111
12.745735 -12.48339 4.7803879 111
12.73575 -12.548688 4.7907405 109
12.763272 -12.575806 4.8010931 109
12.759788 -12.648039 4.8140345 109
12.800948 -12.688839 4.8295636 109
12.770589 -12.760424 4.837328 109
12.811586 -12.801388 4.8528571 109
12.807186 -12.874004 4.865798 109
12.82081 -12.8877 4.8709745 109
12.822841 -12.967315 4.8865037 109
12.856799 -13.001656 4.8994446 109
12.844821 -13.067722 4.9097972 109
12.885448 -13.109054 4.9253263 109
12.866314 -13.168378 4.9330912 105
12.900066 -13.202923 4.946032 104
12.887318 -13.269279 4.9563847 104
12.934425 -13.317783 4.9745021 103
12.927958 -13.391273 4.987443 104
12.961503 -13.42602 5.0003839 106
12.954606 -13.499691 5.0133247 102
12.981359 -13.527568 5.0236778 103
12.98072 -13.608388 5.039207 103
13.014054 -13.643334 5.0521479 101
12.99965 -13.710353 5.0625005 103
13.032881 -13.7454 5.0754414 101
13.031336 -13.826612 5.0909705 101
13.064461 -13.861759 5.1039114 102
13.04849 -13.95624 5.1194406 100
13.074877 -13.984463 5.1297936 101
13.079796 -14.045929 5.1427345 102
13.125875 -14.095411 5.160852 99
13.10216 -14.183278 5.1737928 98
13.134932 -14.218754 5.1867337 100
13.131414 -14.300784 5.2022629 98
13.151013 -14.322128 5.2100272 87
13.147058 -14.404324 5.2255564 45
13.186128 -14.447129 5.2410855 16
13.188159 -14.5367 5.259203 15
13.233591 -14.586778 5.2773204 14
13.215646 -14.655106 5.287673 14
13.241521 -14.683799 5.2980261 15
13.248987 -14.780999 5.3187313 14
13.281223 -14.816962 5.3316722 13
13.268841 -14.892799 5.3446131 12
13.307394 -14.936071 5.3601422 13
13.30095 -15.019314 5.3756714 14
13.345778 -15.069933 5.3937888 13
13.332418 -15.146154 5.4067297 13
13.370711 -15.189657 5.4222589 13
13.341612 -15.279398 5.4351997 13
13.392437 -15.337605 5.4559054 14
13.399767 -15.408091 5.4714346 14
13.437799 -15.451822 5.4869637 12
13.401121 -15.534705 5.4973164 11
13.451596 -15.593216 5.5180221 11
13.44248 -15.677498 5.5335512 11
13.486492 -15.728827 5.5516686 10
13.470572 -15.805974 5.5646095 9
13.51443 -15.857435 5.582727 10
13.5105 -15.9495 5.6008439 10
13.541717 -15.986352 5.6137853 9
13.543466 -16.086018 5.6344905 9
13.587014 -16.137741 5.6526079 10
13.575733 -16.222876 5.6681371 10
13.612927 -16.267323 5.6836662 10
13.607301 -16.360071 5.7017837 10
13.638185 -16.397202 5.7147245 9
13.633956 -16.526133 5.7406063 9
13.664691 -16.563387 5.7535472 9
13.668329 -16.635464 5.7690763 8
13.711254 -16.687706 5.7871938 8
13.699313 -16.809805 5.8104877 9
13.742027 -16.862219 5.8286047 8
13.744799 -16.934669 5.8441339 8
13.781322 -16.979668 5.859663 7
13.749636 -17.079802 5.8751922 8
13.810206 -17.155043 5.9010744 7
13.818163 -17.235384 5.9191914 7
13.860457 -17.288137 5.9373088 7
13.83929 -17.403923 5.9580145 7
13.887384 -17.464405 5.9787197 8
13.876852 -17.559038 5.9968371 13
13.906798 -17.59693 6.009778 34
13.853945 -17.638571 6.009778 37
13.853945 -17.638571 6.009778 34
13.800967 -17.680054 6.009778 32
13.800967 -17.680054 6.009778 34
13.759706 -17.736641 6.0149546 31
13.753785 -17.729008 6.0123663 31
13.68865 -17.791536 6.0149546 32
13.682759 -17.783882 6.0123663 32
13.635415 -17.795877 6.0071902 30
13.64129 -17.803545 6.009778 31
13.564122 -17.850275 6.0071902 32
13.57581 -17.865658 6.0123663 30
13.540052 -17.892773 6.0123663 31
13.528395 -17.877369 6.0071902 32
13.445182 -17.915888 6.0020137 32
13.439384 -17.908161 5.9994254 32
13.409323 -17.942741 6.0020137 31
13.420888 -17.958216 6.0071902 34
13.389207 -18.066078 6.0253072 45
13.435219 -18.12816 6.0460129 47
13.433351 -18.201626 6.061542 49
13.490708 -18.279345 6.0874238 47
13.468826 -18.403315 6.1107178 47
13.514463 -18.465672 6.131423 47
13.504457 -18.568626 6.1521287 45
13.555588 -18.638931 6.1754222 46
13.550531 -18.749973 6.1987162 44
13.595794 -18.812605 6.2194219 46
13.565447 -18.929647 6.2401271 47
13.627337 -19.016012 6.2685971 46
13.639775 -19.113993 6.2918911 42
13.684662 -19.176893 6.3125963 41
13.663637 -19.310329 6.3384786 38
13.713851 -19.381294 6.3617721 43
13.725132 -19.479748 6.385066 39
13.775204 -19.550814 6.4083595 41
13.741145 -19.669104 6.4290652 40
13.801996 -19.756205 6.4575353 39
13.817616 -19.863064 6.483417 39
13.872776 -19.942358 6.5092988 37
13.847738 -20.077202 6.535181 37
13.897097 -20.148764 6.5584745 38
13.896652 -20.278011 6.5869446 38
13.940335 -20.341753 6.6076503 35
13.933612 -20.463324 6.633532 31
13.98254 -20.535181 6.656826 25
13.953346 -20.625038 6.6723552 12
2.2833512 -10.317588 2.8314803 112
2.2647798 -10.33157 2.8340685 112
2.9097562 -13.532422 3.7088768 12
2.8645809 -13.453188 3.6855831 14
2.0784514 -9.9565725 2.7253644 25
1.9422566 -9.3041468 2.5467794 43
1.8474025 -8.9390984 2.4458399 94
1.8298081 -8.8539639 2.4225461 102
1.7675388 -8.728673 2.3863115 82
1.3881654 -6.9625192 1.90232 87
1.3258395 -6.6499166 1.8169097 98
1.235195 -6.2936835 1.7185584 110
1.1700869 -5.9619379 1.6279718 113
1.1006721 -5.7294254 1.563267 111
1.0569369 -5.5017662 1.5011505 117
1.0188812 -5.3615274 1.4623276 121
0.98822463 -5.2002072 1.4183284 123
0.9356395 -5.0331802 1.3717409 123
0.90386307 -4.8622422 1.3251535 123
0.86095595 -4.6835389 1.2759778 123
0.83301419 -4.5315375 1.2345668 121
0.78925622 -4.3922286 1.195744 123
0.76875603 -4.2781448 1.1646857 123
0.73485827 -4.1370177 1.1258628 123
0.707829 -3.9848516 1.0844518 124
0.6786738 -3.9115145 1.0637463 145
0.67702252 -3.9019973 1.0611581 172
0.66921717 -3.9033437 1.0611581 190
0.67248166 -3.9223845 1.0663345 205
0.65838093 -3.9345698 1.0689226 210
0.65519261 -3.9155161 1.0637463 219
0.64813983 -3.9460588 1.0715108 228
0.64657426 -3.9365273 1.0689226 226
0.63476181 -3.9384491 1.0689226 228
0.63322484 -3.9289129 1.0663345 225
0.61992693 -3.9212542 1.0637463 225
0.62294358 -3.9403358 1.0689226 229
0.60816038 -3.9230964 1.0637463 220
0.60964012 -3.9326415 1.0663345 226
0.59929049 -3.9440024 1.0689226 231
0.59783942 -3.9344528 1.0663345 223
0.5860334 -3.9362285 1.0663345 226
0.584611 -3.9266746 1.0637463 213
0.57166803 -3.9481008 1.0689226 216
0.57166803 -3.9481008 1.0689226 217
0.56240565 -3.9396739 1.0663345 210
0.56513578 -3.9587986 1.0715108 229
0.54796928 -3.9514596 1.0689226 225
0.54796928 -3.9514596 1.0689226 225
0.53611243 -3.9530859 1.0689226 225
0.53611243 -3.9530859 1.0689226 226
0.52171206 -3.9355254 1.0637463 210
0.52298141 -3.945101 1.0663345 211
0.51238441 -3.9562314 1.0689226 217
0.51362509 -3.9658105 1.0715108 225
0.50293726 -3.9769166 1.0740991 231
0.49930155 -3.9481678 1.0663345 223
0.48863795 -3.9592345 1.0689226 208
0.48863795 -3.9592345 1.0689226 223
0.47791246 -3.9702725 1.0715108 229
0.47675809 -3.9606826 1.0689226 222
0.46599951 -3.9716885 1.0715108 223
0.46599951 -3.9716885 1.0715108 232
0.45517918 -3.9826653 1.0740991 235
0.45298555 -3.9634717 1.0689226 225
0.44216114 -3.9744129 1.0715108 226
0.44216114 -3.9744129 1.0715108 222
0.43023592 -3.9757216 1.0715108 223
0.43023592 -3.9757216 1.0715108 219
0.41432965 -3.9774106 1.0715108 216
0.41432965 -3.9774106 1.0715108 223
0.40142357 -3.9690256 1.0689226 223
0.40433949 -3.9978561 1.0766872 231
0.39045787 -3.979825 1.0715108 225
0.39140099 -3.9894381 1.0740991 222
0.38034523 -4.0002103 1.0766872 232
0.37943095 -3.9905944 1.0740991 229
0.36745745 -3.9917147 1.0740991 229
0.36745745 -3.9917147 1.0740991 229
0.35633725 -4.0024204 1.0766872 232
0.35548067 -3.992799 1.0740991 231
0.34184527 -3.9746001 1.0689226 220
0.3443284 -4.0034714 1.0766872 231
0.33151764 -3.9948602 1.0740991 225
0.33311531 -4.0141125 1.0792754 235
0.31953159 -3.9958367 1.0740991 225
0.31953159 -3.9958367 1.0740991 228
0.30902478 -4.0160389 1.0792754 234
0.30828372 -4.0064082 1.0766872 228
0.29626313 -4.0073147 1.0766872 228
0.29697528 -4.0169477 1.0792754 228
0.28492314 -4.0178208 1.0792754 234
0.28423986 -4.0081859 1.0766872 228
0.26884961 -4.0189281 1.0792754 234
0.26884961 -4.0189281 1.0792754 238
0.25956032 -4.0001798 1.0740991 226
0.26018578 -4.009819 1.0766872 228
0.24531823 -4.0301104 1.0818636 238
0.23725753 -4.0305929 1.0818636 232
0.23725753 -4.0305929 1.0818636 225
0.22060427 -4.0218649 1.0792754 226
0.22113331 -4.0315099 1.0818636 229
0.17232716 -4.0242229 1.0792754 226
0.15622894 -4.0248799 1.0792754 226
0.12462009 -4.04531 1.0844518 235
0.12521493 -4.0646195 1.0896282 234
0.10058562 -4.0556412 1.0870399 231
0.1010646 -4.074954 1.0922164 241
0.084563158 -4.0656686 1.0896282 232
0.076431662 -4.0658293 1.0896282 234
0.076431662 -4.0658293 1.0896282 235
0.060310692 -4.0757608 1.0922164 234
0.060167775 -4.0661025 1.0896282 232
0.047969215 -4.0662646 1.0896282 231
0.035855185 -4.0760493 1.0922164 243
0.035855185 -4.0760493 1.0922164 234
0.023626896 -4.0761385 1.0922164 235
0.023626896 -4.0761385 1.0922164 232
0.011425402 -4.0858502 1.0948045 238
0.011425402 -4.0858502 1.0948045 237
-0.0048947935 -4.066545 1.0896282 234
-0.0049180468 -4.0858631 1.0948045 235
-0.013058812 -4.0761862 1.0922164 231
-0.013058812 -4.0761862 1.0922164 234
-0.029432992 -4.0857601 1.0948045 229
-0.029502572 -4.0954194 1.0973928 225
-0.037782244 -4.105011 1.099981 232
-0.037604447 -4.0856934 1.0948045 232
-0.053946875 -4.0855103 1.0948045 235
-0.054201942 -4.1048269 1.099981 232
-0.066359654 -4.0949879 1.0973928 235
-0.066359654 -4.0949879 1.0973928 225
-0.078644298 -4.0947704 1.0973928 232
-0.07882978 -4.1044278 1.099981 231
-0.091142692 -4.1041727 1.099981 229
-0.091142692 -4.1041727 1.099981 232
-0.10345478 -4.1038809 1.099981 231
-0.10394163 -4.1231933 1.1051574 235
-0.11986943 -4.1034341 1.099981 234
-0.11986943 -4.1034341 1.099981 229
-0.12837741 -4.1128411 1.1025691 228
-0.12837741 -4.1128411 1.1025691 232
-0.14448774 -4.1026411 1.099981 231
-0.14482771 -4.1122947 1.1025691 232
-0.15233344 -4.0926914 1.0973928 216
-0.15377055 -4.1313019 1.1077455 240
-0.16949871 -4.1113515 1.1025691 231
-0.17029449 -4.1306539 1.1077455 232
-0.17855544 -4.1303048 1.1077455 231
-0.17813826 -4.1206546 1.1051574 225
-0.1950752 -4.1295576 1.1077455 229
-0.19461942 -4.1199093 1.1051574 223
-0.20746297 -4.1289539 1.1077455 229
-0.2079477 -4.1386008 1.1103337 234
-0.21984889 -4.1283126 1.1077455 228
-0.22036254 -4.1379585 1.1103337 231
-0.23223281 -4.1276345 1.1077455 234
-0.23277541 -4.1372786 1.1103337 234
-0.24518618 -4.1365619 1.1103337 228
-0.24518618 -4.1365619 1.1103337 232
-0.25819519 -4.1454482 1.112922 231
-0.25819519 -4.1454482 1.112922 231
-0.27000099 -4.135016 1.1103337 231
-0.27063036 -4.1446548 1.112922 225
-0.28372139 -4.153461 1.1155101 231
-0.31278843 -4.1513734 1.1155101 229
-0.34932521 -4.1387653 1.112922 223
-0.37589163 -4.1558347 1.1180983 220
-0.42770436 -4.1702428 1.1232747 219
-0.44122747 -4.1785464 1.1258628 228
-0.44325608 -4.1977582 1.1310393 229
-0.45271796 -4.1676011 1.1232747 214
-0.45271796 -4.1676011 1.1232747 210
-0.46736258 -4.1854234 1.128451 204
-0.46736258 -4.1854234 1.128451 225
-0.47991672 -4.1840029 1.128451 207
-0.48101744 -4.1935992 1.1310393 211
-0.49778795 -4.1916413 1.1310393 193
-0.49550974 -4.1724577 1.1258628 148
-0.50269538 -4.1618686 1.1232747 121
-0.50153708 -4.1522794 1.1206864 114
-0.51814216 -4.1502399 1.1206864 114
-0.51933879 -4.1598248 1.1232747 115
-0.52644157 -4.1491952 1.1206864 114
-0.52765739 -4.1587777 1.1232747 114
-0.54554236 -4.1662111 1.1258628 112
-0.54428822 -4.1566339 1.1232747 112
-0.55803853 -4.164556 1.1258628 112
-0.55675566 -4.1549821 1.1232747 112
-0.57315278 -4.1820025 1.1310393 114
-0.57184124 -4.1724329 1.128451 114
-0.58301568 -4.1611328 1.1258628 112
-0.58569622 -4.1802645 1.1310393 114
-0.59823436 -4.1784883 1.1310393 112
-0.5996033 -4.1880503 1.1336274 114
-0.61494344 -4.1760621 1.1310393 114
-0.61635065 -4.1856184 1.1336274 114
-0.62614697 -4.1939306 1.1362156 114
-0.62472063 -4.1843772 1.1336274 114
-0.64291763 -4.1913924 1.1362156 114
-0.64291763 -4.1913924 1.1362156 114
-0.6498155 -4.1805534 1.1336274 114
-0.65129912 -4.1900983 1.1362156 114
-0.66957599 -4.1969981 1.1388038 114
-0.67109776 -4.2065368 1.141392 114
-0.67796868 -4.1956506 1.1388038 114
-0.67950952 -4.2051864 1.141392 114
-0.69632477 -4.2024345 1.141392 114
-0.69632477 -4.2024345 1.141392 115
-0.70313019 -4.1915073 1.1388038 114
-0.70472825 -4.2010336 1.141392 114
-0.72479892 -4.2172203 1.1465684 115
-0.72316283 -4.2077007 1.1439801 114
-0.73744732 -4.2150269 1.1465684 114
-0.73744732 -4.2150269 1.1465684 114
-0.75008905 -4.2127957 1.1465684 114
-0.75008905 -4.2127957 1.1465684 114
-0.76866543 -4.2192645 1.1491566 114
-0.76866543 -4.2192645 1.1491566 114
-0.77535218 -4.2082195 1.1465684 114
-0.77885264 -4.2272182 1.1517447 114
-0.79754341 -4.233561 1.154333 114
-0.79575521 -4.2240686 1.1517447 114
-0.80420178 -4.2224689 1.1517447 114
-0.80600893 -4.2319574 1.154333 114
-0.82477546 -4.2381811 1.1569211 114
-0.82477546 -4.2381811 1.1569211 114
-0.83138603 -4.2270455 1.154333 114
-0.83325016 -4.2365232 1.1569211 112
-0.85018951 -4.2331562 1.1569211 114
-0.85018951 -4.2331562 1.1569211 112
-0.86288512 -4.2305865 1.1569211 114
-0.86288512 -4.2305865 1.1569211 114
-0.87361425 -4.2185202 1.154333 112
-0.87753177 -4.2374372 1.1595093 114
-0.89421439 -4.2536912 1.1646857 114
-0.89222729 -4.2442384 1.1620975 112
-0.90495592 -4.2415428 1.1620975 114
-0.90495592 -4.2415428 1.1620975 114
-0.91972029 -4.2482491 1.1646857 112
-0.91767651 -4.2388086 1.1620975 112
-0.93660516 -4.2643399 1.169862 114
-0.93660516 -4.2643399 1.169862 112
-0.953655 -4.2605591 1.169862 112
-0.95576483 -4.2699852 1.1724503 114
-0.96217418 -4.2586436 1.169862 114
-0.9643029 -4.268065 1.1724503 114
-0.98353374 -4.2735872 1.1750385 115
-0.98353374 -4.2735872 1.1750385 115
-0.99426419 -4.2810202 1.1776266 115
-0.99426419 -4.2810202 1.1776266 115
-1.0113802 -4.277009 1.1776266 115
-1.0158259 -4.2958088 1.182803 117
-1.0287087 -4.2927423 1.182803 120
-1.0242068 -4.2739553 1.1776266 117
-1.0393031 -4.2802501 1.1802149 114
-1.0415823 -4.2896366 1.182803 114
-1.0544465 -4.2864928 1.182803 114
-1.0544465 -4.2864928 1.182803 114
-1.0696367 -4.2926826 1.1853912 114
-1.0719721 -4.3020554 1.1879795 115
-1.0825099 -4.2894545 1.1853912 118
-1.0848734 -4.29882 1.1879795 126
-1.1025482 -4.3142633 1.1931558 127
-1.1025482 -4.3142633 1.1931558 129
-1.1270837 -4.3378649 1.2009203 133
-1.1173674 -4.3004694 1.1905676 129
-1.1333094 -4.3262582 1.1983322 132
-1.1308616 -4.3169141 1.195744 132
-1.1530904 -4.3310246 1.2009203 132
-1.1506053 -4.3216906 1.1983322 127
-1.1617501 -4.3287096 1.2009203 124
-1.1617501 -4.3287096 1.2009203 120
-1.1790556 -4.324028 1.2009203 117
-1.1765145 -4.3147092 1.1983322 114
-1.1945914 -4.329783 1.2035086 114
-1.1894534 -4.3111601 1.1983322 114
-1.2049785 -4.3168759 1.2009203 114
-1.2049785 -4.3168759 1.2009203 114
-1.2205484 -4.3225374 1.2035086 112
-1.2205484 -4.3225374 1.2035086 114
-1.2361633 -4.3281441 1.2060968 114
-1.2388159 -4.3374319 1.2086849 115
-1.2491421 -4.3244162 1.2060968 114
-1.2545033 -4.3429756 1.2112731 114
-1.2621098 -4.3206491 1.2060968 114
-1.2702348 -4.3484645 1.2138613 114
-1.2860107 -4.353898 1.2164495 114
-1.2832745 -4.3446345 1.2138613 114
-1.2963027 -4.340765 1.2138613 114
-1.2963027 -4.340765 1.2138613 112
-1.3164562 -4.344789 1.2164495 114
-1.3220582 -4.3632779 1.2216259 114
-1.3323134 -4.3500562 1.2190377 115
-1.335142 -4.359292 1.2216259 114
-1.3453575 -4.3460398 1.2190377 114
-1.3539267 -4.3737216 1.2268022 114
-1.3641577 -4.3604212 1.2242141 114
-1.3670417 -4.3696399 1.2268022 112
-1.3772328 -4.3563094 1.2242141 114
-1.3801445 -4.365519 1.2268022 114
-1.3961741 -4.3705602 1.2293905 114
-1.3961741 -4.3705602 1.2293905 114
-1.4122463 -4.3755445 1.2319787 114
-1.4122463 -4.3755445 1.2319787 114
-1.4253666 -4.3712878 1.2319787 114
-1.4283612 -4.3804712 1.2345668 114
-1.4445181 -4.3853407 1.2371551 114
-1.4445181 -4.3853407 1.2371551 114
-1.4546181 -4.3718224 1.2345668 114
-1.4576676 -4.3809876 1.2371551 114
-1.473881 -4.3857508 1.2397432 114
-1.473881 -4.3857508 1.2397432 114
-1.490136 -4.3904562 1.2423314 114
-1.4870316 -4.3813095 1.2397432 114
