# .PCD v0.7 - Point Cloud Data file format
VERSION 0.7
FIELDS x y z intensity
SIZE 4 4 4 4
TYPE F F F F
COUNT 1 1 1 1
WIDTH 1355
HEIGHT 1
VIEWPOINT 0 0 0 1 0 0 0
POINTS 1355
DATA ascii
4.5970993 3.5765707 -1.5606788 35
4.5970993 3.5765707 -1.5606788 35
4.6078086 3.5627632 -1.5606788 37
4.6154499 3.5686717 -1.563267 39
4.6184759 3.5489237 -1.5606788 42
4.6261353 3.5548093 -1.563267 38
4.6291022 3.5350525 -1.5606788 33
4.6214252 3.5291901 -1.5580907 39
4.6473808 3.5269887 -1.563267 36
4.6396861 3.5211494 -1.5606788 29
4.6425171 3.5013981 -1.5580907 32
4.6425171 3.5013981 -1.5580907 31
4.6642203 3.4885855 -1.5606788 34
4.6642203 3.4885855 -1.5606788 34
4.666913 3.4688151 -1.5580907 39
4.666913 3.4688151 -1.5580907 35
4.6772985 3.4547987 -1.5580907 37
4.6772985 3.4547987 -1.5580907 36
4.6954284 3.4464667 -1.5606788 38
4.6876416 3.4407513 -1.5580907 39
4.6979427 3.4266729 -1.5580907 42
4.6979427 3.4266729 -1.5580907 37
4.7082019 3.4125636 -1.5580907 40
4.7082019 3.4125636 -1.5580907 37
4.7184181 3.3984237 -1.5580907 38
4.7340941 3.4097142 -1.563267 40
4.7285924 3.3842533 -1.5580907 37
4.7285924 3.3842533 -1.5580907 37
4.7387238 3.3700521 -1.5580907 35
4.7387238 3.3700521 -1.5580907 38
4.7600598 3.356637 -1.5606788 40
4.7521658 3.3510704 -1.5580907 34
4.7509537 3.3360085 -1.5555024 36
4.7667637 3.34711 -1.5606788 43
4.7721868 3.3224971 -1.5580907 35
4.7642593 3.3169782 -1.5555024 35
4.7900763 3.3136611 -1.5606788 34
4.7662454 3.2971752 -1.5529143 34
4.7840753 3.2883329 -1.5555024 38
4.7920356 3.2938044 -1.5580907 36
4.7939191 3.2739661 -1.5555024 38
4.8018956 3.2794135 -1.5580907 36
4.8117123 3.2649932 -1.5580907 33
4.803719 3.2595696 -1.5555024 34
4.8054671 3.2397442 -1.5529143 32
4.8134761 3.2451437 -1.5555024 37
4.8151646 3.2253132 -1.5529143 34
4.8231902 3.2306888 -1.5555024 44
4.8360744 3.2113702 -1.5555024 40
4.8360744 3.2113702 -1.5555024 38
4.8505445 3.2070189 -1.5580907 39
4.8424873 3.2016916 -1.5555024 40
4.8633337 3.1875911 -1.5580907 40
4.839098 3.1717062 -1.5503261 34
4.8454318 3.1620216 -1.5503261 36
4.8454318 3.1620216 -1.5503261 31
4.8742614 3.1531074 -1.5555024 33
4.8661513 3.147861 -1.5529143 37
4.8918247 3.1436925 -1.5580907 39
4.8755732 3.1332483 -1.5529143 42
4.8849506 3.1186078 -1.5529143 34
4.8849506 3.1186078 -1.5529143 36
4.8973861 3.0990429 -1.5529143 37
4.9055486 3.104208 -1.5555024 41
4.887229 3.0789444 -1.5477378 36
4.911747 3.0943906 -1.5555024 37
4.9076991 3.064487 -1.5503261 37
4.9158921 3.069603 -1.5529143 40
4.9302249 3.0648646 -1.5555024 43
4.9384279 3.0699644 -1.5580907 44
4.9424448 3.0451193 -1.5555024 41
4.9342213 3.0400527 -1.5529143 43
4.9320574 3.0251279 -1.5503261 38
4.9402914 3.0301781 -1.5529143 42
4.9523726 3.0103927 -1.5529143 43
4.9606266 3.0154099 -1.5555024 44
4.9613814 2.995522 -1.5529143 44
4.9613814 2.995522 -1.5529143 42
4.9786296 2.9855921 -1.5555024 47
4.9620619 2.9756567 -1.5503261 47
4.9792652 2.9657001 -1.5529143 55
4.9709663 2.9607573 -1.5503261 51
4.9964533 2.9556668 -1.5555024 53
4.9881396 2.9507489 -1.5529143 44
4.9999027 2.9307728 -1.5529143 43
4.9915695 2.9258883 -1.5503261 46
4.9974113 2.9158993 -1.5503261 46
4.9974113 2.9158993 -1.5503261 51
5.0006728 2.8910518 -1.5477378 46
5.0173974 2.9007208 -1.5529143 42
5.0231886 2.8906803 -1.5529143 47
5.0148168 2.8858624 -1.5503261 47
5.0347114 2.8705645 -1.5529143 47
5.0347114 2.8705645 -1.5529143 53
5.0348949 2.8506882 -1.5503261 45
5.0433002 2.8554473 -1.5529143 47
5.0434241 2.8355708 -1.5503261 42
5.0518441 2.8403046 -1.5529143 44
5.051908 2.8204279 -1.5503261 42
5.051908 2.8204279 -1.5503261 41
5.0603466 2.8052595 -1.5503261 43
5.0603466 2.8052595 -1.5503261 42
5.0799937 2.789645 -1.5529143 42
5.0630608 2.7803462 -1.5477378 46
5.0770869 2.774847 -1.5503261 52
5.0686111 2.7702146 -1.5477378 47
5.0966401 2.759115 -1.5529143 49
5.0796514 2.749918 -1.5477378 43
5.0936446 2.7443347 -1.5503261 42
5.0936446 2.7443347 -1.5503261 47
5.1045814 2.7239382 -1.5503261 50
5.1131029 2.7284858 -1.5529143 46
5.1041946 2.7040904 -1.5477378 47
5.1041946 2.7040904 -1.5477378 42
5.1122837 2.6887658 -1.5477378 50
5.1122837 2.6887658 -1.5477378 49
5.1288896 2.6778874 -1.5503261 60
5.1288896 2.6778874 -1.5503261 57
5.1283245 2.6580439 -1.5477378 58
5.1197486 2.6535988 -1.5451497 53
5.1276865 2.6382277 -1.5451497 48
5.1362753 2.6426468 -1.5477378 46
5.1441803 2.6272261 -1.5477378 48
5.1355782 2.6228328 -1.5451497 52
5.1632676 2.6109874 -1.5503261 47
5.146028 2.6022696 -1.5451497 42
5.1598511 2.596314 -1.5477378 39
5.1598511 2.596314 -1.5477378 36
5.1701946 2.5756538 -1.5477378 35
5.1788406 2.5799611 -1.5503261 45
5.1778984 2.5601318 -1.5477378 44
5.1778984 2.5601318 -1.5477378 42
5.1768842 2.5403314 -1.5451497 44
5.1768842 2.5403314 -1.5451497 49
5.1844816 2.5247893 -1.5451497 43
5.1931663 2.5290184 -1.5477378 47
5.2007298 2.5134275 -1.5477378 46
5.1920328 2.5092244 -1.5451497 41
5.1908278 2.4894602 -1.5425615 48
5.1995373 2.4936371 -1.5451497 49
5.2157164 2.4821782 -1.5477378 42
5.2157164 2.4821782 -1.5477378 53
5.2231398 2.4665198 -1.5477378 47
5.2231398 2.4665198 -1.5477378 48
5.2217689 2.4467409 -1.5451497 52
5.2217689 2.4467409 -1.5451497 53
5.231514 2.4258344 -1.5451497 50
5.2402773 2.4298978 -1.5477378 46
5.2387681 2.4101288 -1.5451497 54
5.2475433 2.414166 -1.5477378 56
5.245975 2.3944018 -1.5451497 52
5.245975 2.3944018 -1.5451497 47
5.2443352 2.3746688 -1.5425615 44
5.2443352 2.3746688 -1.5425615 48
5.2602468 2.3628831 -1.5451497 48
5.2514358 2.3589251 -1.5425615 52
5.2584887 2.3431602 -1.5425615 45
5.2761345 2.3510232 -1.5477378 52
5.2654948 2.3273742 -1.5425615 50
5.2743292 2.3312793 -1.5451497 48
5.2724528 2.3115673 -1.5425615 47
5.2901459 2.3193243 -1.5477378 53
5.2905188 2.294302 -1.5451497 43
5.2905188 2.294302 -1.5451497 45
5.2885046 2.2746038 -1.5425615 42
5.2885046 2.2746038 -1.5425615 41
5.3041892 2.2625179 -1.5451497 45
5.2864199 2.2549381 -1.5399733 42
5.3020568 2.2428319 -1.5425615 47
5.3109531 2.2465951 -1.5451497 54
5.2998543 2.2231793 -1.5399733 49
5.3087616 2.2269158 -1.5425615 45
5.3154187 2.2109795 -1.5425615 45
5.3154187 2.2109795 -1.5425615 45
5.3220277 2.1950233 -1.5425615 46
5.3220277 2.1950233 -1.5425615 52
5.3196483 2.1753912 -1.5399733 42
5.3285885 2.1790473 -1.5425615 48
5.3351016 2.1630518 -1.5425615 52
5.3261504 2.1594224 -1.5399733 51
5.3347454 2.1381006 -1.5399733 46
5.3347454 2.1381006 -1.5399733 61
5.3390107 2.1274269 -1.5399733 75
5.3390107 2.1274269 -1.5399733 72
5.3474779 2.1060538 -1.5399733 67
5.3384905 2.1025143 -1.5373851 59
5.3537717 2.0900021 -1.5399733 51
5.3537717 2.0900021 -1.5399733 48
5.3600178 2.0739315 -1.5399733 57
5.3600178 2.0739315 -1.5399733 69
5.384253 2.064759 -1.5451497 76
5.3752341 2.0613005 -1.5425615 63
5.3904233 2.0485971 -1.5451497 75
5.3813939 2.0451655 -1.5425615 63
5.3804889 2.0202284 -1.5399733 58
5.3804889 2.0202284 -1.5399733 57
5.3845186 2.0094633 -1.5399733 56
5.3754687 2.0060861 -1.5373851 57
5.3925133 1.9879093 -1.5399733 53
5.401576 1.9912503 -1.5425615 46
5.4055481 1.9804431 -1.5425615 43
5.3964782 1.9771203 -1.5399733 37
5.4043436 1.9555186 -1.5399733 40
5.4043436 1.9555186 -1.5399733 39
5.3991542 1.9414376 -1.5373851 41
5.4082437 1.944706 -1.5399733 37
5.406877 1.9198256 -1.5373851 39
5.4034996 1.9003916 -1.534797 31
5.4034996 1.9003916 -1.534797 31
5.4274201 1.8905272 -1.5399733 33
5.4182982 1.8873498 -1.5373851 36
5.4349389 1.8688024 -1.5399733 37
5.4258046 1.8656616 -1.5373851 35
5.4386654 1.8579289 -1.5399733 40
5.4295249 1.8548063 -1.5373851 47
5.4277477 1.8299874 -1.534797 39
5.4369006 1.8330734 -1.5373851 38
5.440556 1.822196 -1.5373851 46
5.440556 1.822196 -1.5373851 43
5.4386296 1.7973882 -1.534797 43
5.4478011 1.8004192 -1.5373851 42
5.4330363 1.7834947 -1.5322088 43
5.4422135 1.7865074 -1.534797 46
5.4585056 1.7677002 -1.5373851 48
5.449316 1.7647243 -1.534797 45
5.454586 1.7483684 -1.534797 48
5.454586 1.7483684 -1.534797 48
5.4690132 1.7349175 -1.5373851 44
5.4598064 1.7319968 -1.534797 49
5.4741936 1.7185028 -1.5373851 51
5.4834094 1.7213959 -1.5399733 49
5.4700999 1.6992069 -1.534797 45
5.4608755 1.6963415 -1.5322088 41
5.4768529 1.6773131 -1.534797 35
5.4768529 1.6773131 -1.534797 31
5.4801965 1.666356 -1.534797 33
5.4801965 1.666356 -1.534797 32
5.4775658 1.6416489 -1.5322088 30
5.4868183 1.6444219 -1.534797 31
5.4808378 1.6306905 -1.5322088 29
5.4993544 1.6361996 -1.5373851 32
5.4873171 1.6087542 -1.5322088 31
5.4965858 1.6114717 -1.534797 31
5.4921184 1.592285 -1.5322088 34
5.4921184 1.592285 -1.5322088 35
5.4968705 1.5758015 -1.5322088 42
5.5154409 1.5811251 -1.5373851 36
5.5015731 1.5593038 -1.5322088 40
5.5108666 1.5619378 -1.534797 37
5.5155272 1.5453981 -1.534797 37
5.5062265 1.5427921 -1.5322088 38
5.5030422 1.5181861 -1.5296205 35
5.5123534 1.5207549 -1.5322088 41
5.5153842 1.5097271 -1.5322088 39
5.5153842 1.5097271 -1.5322088 33
5.5120521 1.4851407 -1.5296205 39
5.5307055 1.4901665 -1.534797 41
5.5336747 1.4791021 -1.534797 39
5.5150113 1.4741136 -1.5296205 40
5.5208635 1.4520419 -1.5296205 45
5.5208635 1.4520419 -1.5296205 41
5.5251951 1.4354727 -1.5296205 40
5.534544 1.4379016 -1.5322088 35
5.5294766 1.4188907 -1.5296205 41
5.5294766 1.4188907 -1.5296205 45
5.5149817 1.3975505 -1.5244442 46
5.5430717 1.4046687 -1.5322088 51
5.5472608 1.3880332 -1.5322088 52
5.5472608 1.3880332 -1.5322088 44
5.5513997 1.3713852 -1.5322088 39
5.5420222 1.3690686 -1.5296205 42
5.5367203 1.3501481 -1.5270324 41
5.5461044 1.3524364 -1.5296205 43
5.5514698 1.3302412 -1.5296205 40
5.5608635 1.3324921 -1.5322088 39
5.564836 1.3158035 -1.5322088 40
5.5460358 1.3113582 -1.5270324 44
5.5593514 1.2969087 -1.5296205 42
5.5593514 1.2969087 -1.5296205 42
5.5632172 1.2802248 -1.5296205 44
5.5632172 1.2802248 -1.5296205 42
5.5576129 1.2613915 -1.5270324 38
5.5481935 1.2592535 -1.5244442 38
5.5613723 1.2447129 -1.5270324 41
5.5802245 1.2489324 -1.5322088 46
5.5839462 1.2321861 -1.5322088 50
5.5650816 1.2280233 -1.5270324 50
5.5781789 1.2133757 -1.5296205 49
5.5876174 1.2154287 -1.5322088 48
5.5735412 1.1890379 -1.5270324 41
5.5924344 1.1930686 -1.5322088 46
5.5853586 1.1798849 -1.5296205 40
5.5853586 1.1798849 -1.5296205 43
5.580575 1.1555755 -1.5270324 38
5.5900335 1.1575341 -1.5296205 50
5.5840168 1.1388286 -1.5270324 47
5.5840168 1.1388286 -1.5270324 42
5.5874081 1.1220715 -1.5270324 44
5.5779376 1.1201696 -1.5244442 43
5.6097007 1.109051 -1.5322088 48
5.600225 1.1071776 -1.5296205 50
5.5845585 1.0866821 -1.5244442 54
5.5845585 1.0866821 -1.5244442 53
5.59728 1.07174 -1.5270324 47
5.6067672 1.0735565 -1.5296205 56
5.5909777 1.0531553 -1.5244442 52
5.6004701 1.0549434 -1.5270324 59
5.5951457 1.0307831 -1.5244442 49
5.6141448 1.0342832 -1.5296205 53
5.6257048 1.0247838 -1.5322088 52
5.6257048 1.0247838 -1.5322088 51
5.6297588 1.002273 -1.5322088 58
5.6392684 1.003966 -1.534797 71
5.6232257 0.9837147 -1.5296205 70
5.6327405 0.98537916 -1.5322088 68
5.6261516 0.96684062 -1.5296205 71
5.6356711 0.96847653 -1.5322088 72
5.6290269 0.94995785 -1.5296205 73
5.6385512 0.95156521 -1.5322088 78
5.6318512 0.93306649 -1.5296205 80
5.6413808 0.9346453 -1.5322088 79
5.6441593 0.91771698 -1.5322088 76
5.6441593 0.91771698 -1.5322088 78
5.6373482 0.89925879 -1.5296205 78
5.6373482 0.89925879 -1.5296205 79
5.6409001 0.87670225 -1.5296205 83
5.6409001 0.87670225 -1.5296205 78
5.6521897 0.86688304 -1.5322088 75
5.6521897 0.86688304 -1.5322088 79
5.6365051 0.84141517 -1.5270324 70
5.6365051 0.84141517 -1.5270324 81
5.6477332 0.8315475 -1.5296205 84
5.6477332 0.8315475 -1.5296205 85
5.6605759 0.81031877 -1.5322088 83
5.6414523 0.80758119 -1.5270324 84
5.6534157 0.79199332 -1.5296205 74
5.6534157 0.79199332 -1.5296205 75
5.655766 0.77502954 -1.5296205 79
5.655766 0.77502954 -1.5296205 79
5.6580658 0.75805879 -1.5296205 74
5.6484919 0.75677609 -1.5270324 77
5.6603146 0.74108118 -1.5296205 81
5.6603146 0.74108118 -1.5296205 83
5.6625123 0.72409695 -1.5296205 86
5.6529312 0.72287172 -1.5270324 76
5.6742439 0.70830262 -1.5322088 74
5.6550741 0.70590973 -1.5270324 72
5.6674423 0.68444192 -1.5296205 77
5.6674423 0.68444192 -1.5296205 81
5.6687999 0.67310566 -1.5296205 77
5.6687999 0.67310566 -1.5296205 79
5.6714468 0.65042514 -1.5296205 73
5.6618505 0.6493246 -1.5270324 73
5.6631379 0.63799959 -1.5270324 75
5.6535392 0.63691825 -1.5244442 83
5.6656442 0.61534202 -1.5270324 80
5.6656442 0.61534202 -1.5270324 77
5.6578588 0.59732819 -1.5244442 78
5.6578588 0.59732819 -1.5244442 81
5.6596255 0.58035195 -1.5244442 81
5.6692343 0.58133727 -1.5270324 82
5.6613412 0.56337053 -1.5244442 79
5.6709528 0.564327 -1.5270324 80
5.6726203 0.5473116 -1.5270324 80
5.6533914 0.54545635 -1.521856 78
5.6651459 0.52372766 -1.5244442 75
5.6843824 0.52550602 -1.5296205 80
5.666182 0.51239628 -1.5244442 80
5.6758022 0.51326627 -1.5270324 83
5.6681862 0.48972753 -1.5244442 74
5.6778097 0.49055898 -1.5270324 82
5.6787796 0.47920239 -1.5270324 82
5.6787796 0.47920239 -1.5270324 84
5.6806507 0.45648351 -1.5270324 82
5.6710229 0.45570982 -1.5244442 80
5.6531034 0.43720508 -1.5192678 79
5.6723642 0.43869472 -1.5244442 84
5.673655 0.42167568 -1.5244442 85
5.673655 0.42167568 -1.5244442 83
5.6845293 0.40533984 -1.5270324 82
5.6845293 0.40533984 -1.5270324 85
5.6760826 0.38762635 -1.5244442 87
5.6857195 0.38828447 -1.5270324 88
5.677588 0.36491898 -1.5244442 84
5.677588 0.36491898 -1.5244442 85
5.6879468 0.35416338 -1.5270324 82
5.6879468 0.35416338 -1.5270324 82
5.6893182 0.3314088 -1.5270324 83
5.6893182 0.3314088 -1.5270324 86
5.6899695 0.3200295 -1.5270324 83
5.6996136 0.32057193 -1.5296205 85
5.6912041 0.29726714 -1.5270324 88
5.6815581 0.2967633 -1.5244442 74
5.6917872 0.28588414 -1.5270324 85
5.672493 0.28491503 -1.521856 74
5.6928854 0.26311475 -1.5270324 83
5.6639385 0.26177689 -1.5192678 68
5.6936488 0.24603495 -1.5270324 56
5.6839986 0.24561794 -1.5244442 48
5.68471 0.22856486 -1.5244442 45
5.68471 0.22856486 -1.5244442 47
5.68537 0.21150973 -1.5244442 35
5.68537 0.21150973 -1.5244442 29
5.6763253 0.19412255 -1.521856 31
5.6859789 0.19445269 -1.5244442 25
5.6770563 0.17141576 -1.521856 26
5.6770563 0.17141576 -1.521856 28
5.6870437 0.16033353 -1.5244442 31
5.6966987 0.16060574 -1.5270324 33
5.6876392 0.13758413 -1.5244442 34
5.6972957 0.13781773 -1.5270324 31
5.6879029 0.12620859 -1.5244442 32
5.6879029 0.12620859 -1.5244442 25
5.6787047 0.10328037 -1.521856 25
5.6883626 0.10345602 -1.5244442 26
5.6788998 0.091922767 -1.521856 21
5.6788998 0.091922767 -1.521856 22
5.6792221 0.069206491 -1.521856 24
5.6792221 0.069206491 -1.521856 30
5.6794043 0.052168541 -1.521856 30
5.6987219 0.052345984 -1.5270324 35
5.6891942 0.035189863 -1.5244442 32
5.6891942 0.035189863 -1.5244442 25
5.6796303 0.012411756 -1.521856 31
6.440557 -0.019321728 -1.4869264 111
6.4503007 -0.019350961 -1.489176 111
6.4502492 -0.032251514 -1.489176 111
6.4210186 -0.03210536 -1.4824275 111
6.4403253 -0.057964493 -1.4869264 109
6.430582 -0.057876799 -1.484677 109
6.4108934 -0.076934412 -1.4801779 109
6.4206362 -0.077051334 -1.4824275 111
6.430119 -0.096459016 -1.484677 109
6.430119 -0.096459016 -1.484677 109
6.4200587 -0.11557353 -1.4824275 111
6.4103165 -0.11539816 -1.4801779 109
6.419683 -0.13483316 -1.4824275 111
6.4294243 -0.13503776 -1.484677 109
6.4095087 -0.15385775 -1.4801779 111
6.3997679 -0.15362392 -1.4779284 111
6.4187584 -0.17334861 -1.4824275 111
6.409018 -0.17308556 -1.4801779 111
6.4180136 -0.19902217 -1.4824275 111
6.4082747 -0.19872017 -1.4801779 111
6.4078646 -0.21153632 -1.4801779 111
6.4176025 -0.2118578 -1.4824275 111
6.3972301 -0.23680557 -1.4779284 111
6.3874927 -0.23644514 -1.4756789 111
6.3964906 -0.25599617 -1.4779284 111
6.4159627 -0.25677547 -1.4824275 111
6.4054284 -0.27560332 -1.4801779 109
6.3859591 -0.27476561 -1.4756789 111
6.404573 -0.29481834 -1.4801779 111
6.404573 -0.29481834 -1.4801779 111
6.3939276 -0.31355345 -1.4779284 109
6.4036598 -0.31403071 -1.4801779 109
6.3832278 -0.33222735 -1.4756789 109
6.402689 -0.33324024 -1.4801779 109
6.4211183 -0.35351804 -1.484677 109
6.3919315 -0.35191113 -1.4779284 109
6.3908467 -0.37108532 -1.4779284 109
6.3908467 -0.37108532 -1.4779284 109
6.3897047 -0.39025617 -1.4779284 109
6.3799791 -0.38966218 -1.4756789 103
6.3880925 -0.41581178 -1.4779284 109
6.3880925 -0.41581178 -1.4779284 109
6.3872485 -0.42858714 -1.4779284 103
6.3775263 -0.4279348 -1.4756789 103
6.3952022 -0.45482385 -1.4801779 109
6.3757639 -0.45344141 -1.4756789 109
6.3840919 -0.47328702 -1.4779284 100
6.3743749 -0.47256663 -1.4756789 102
6.3826432 -0.49243712 -1.4779284 109
6.3729281 -0.4916876 -1.4756789 105
6.3811369 -0.51158279 -1.4779284 109
6.3811369 -0.51158279 -1.4779284 109
6.3698635 -0.52991611 -1.4756789 109
6.3698635 -0.52991611 -1.4756789 109
6.3682451 -0.54902327 -1.4756789 103
6.3682451 -0.54902327 -1.4756789 100
6.3665695 -0.56812549 -1.4756789 105
6.356864 -0.56725943 -1.4734294 109
6.3642459 -0.59358716 -1.4756789 109
6.3739476 -0.59449202 -1.4779284 109
6.3630462 -0.60631448 -1.4756789 109
6.3630462 -0.60631448 -1.4756789 103
6.36057 -0.63176173 -1.4756789 111
6.36057 -0.63176173 -1.4756789 109
6.3592935 -0.6444816 -1.4756789 109
6.3592935 -0.6444816 -1.4756789 109
6.3566647 -0.66991353 -1.4756789 109
6.3566647 -0.66991353 -1.4756789 109
6.2575493 -1.1516175 -1.4689304 114
6.2575493 -1.1516175 -1.4689304 117
6.2253337 -1.1650079 -1.4621818 111
6.2061791 -1.1614233 -1.4576828 111
6.2026668 -1.1800367 -1.4576828 111
6.2218108 -1.1836787 -1.4621818 114
6.1990986 -1.1986393 -1.4576828 112
6.1990986 -1.1986393 -1.4576828 114
6.1846957 -1.2215381 -1.4554334 109
6.1846957 -1.2215381 -1.4554334 98
6.1631298 -1.2300907 -1.4509343 87
6.1631298 -1.2300907 -1.4509343 78
6.1390648 -1.2508427 -1.4464353 69
6.1390648 -1.2508427 -1.4464353 50
6.1460943 -1.2650827 -1.4486848 48
6.1270075 -1.2611539 -1.4441857 58
6.1219139 -1.2856518 -1.4441857 60
6.1314492 -1.2876543 -1.4464353 41
6.1288619 -1.2999146 -1.4464353 51
6.1002669 -1.2938497 -1.4396868 50
6.1140895 -1.3223599 -1.4441857 66
6.0950427 -1.3182404 -1.4396868 58
6.0910606 -1.3365196 -1.4396868 58
6.0910606 -1.3365196 -1.4396868 72
6.0965343 -1.3569036 -1.4419363 82
6.0965343 -1.3569036 -1.4419363 81
6.0815558 -1.3791239 -1.4396868 74
6.0530486 -1.3726592 -1.4329382 65
6.0597892 -1.3869364 -1.4351877 61
6.0597892 -1.3869364 -1.4351877 64
6.0731716 -1.4155881 -1.4396868 76
6.0636821 -1.4133763 -1.4374373 74
6.0703282 -1.4277316 -1.4396868 76
6.079813 -1.4299625 -1.4419363 71
6.0929966 -1.4588077 -1.4464353 64
6.0929966 -1.4588077 -1.4464353 64
6.0995378 -1.4732785 -1.4486848 70
6.0900664 -1.4709908 -1.4464353 64
6.093596 -1.4976648 -1.4486848 75
6.1030583 -1.4999903 -1.4509343 81
6.1189609 -1.5168824 -1.4554334 90
6.1189609 -1.5168824 -1.4554334 95
6.1506362 -1.5508753 -1.4644314 102
6.1411881 -1.548493 -1.4621818 109
6.145956 -1.5693202 -1.4644314 109
6.1553969 -1.5717309 -1.4666809 109
6.1129198 -1.5804342 -1.4576828 109
6.1317868 -1.585312 -1.4621818 109
6.1348205 -1.6123031 -1.4644314 111
6.1348205 -1.6123031 -1.4644314 111
6.1315832 -1.6245695 -1.4644314 111
6.1410022 -1.6270651 -1.4666809 111
6.1156273 -1.6465496 -1.4621818 109
6.1156273 -1.6465496 -1.4621818 109
6.1123219 -1.6587776 -1.4621818 109
6.1029186 -1.6562256 -1.4599323 109
6.0962448 -1.680624 -1.4599323 109
6.105638 -1.6832135 -1.4621818 111
6.1022596 -1.6954215 -1.4621818 111
6.1022596 -1.6954215 -1.4621818 111
6.0954289 -1.7198168 -1.4621818 111
6.076674 -1.7145251 -1.4576828 109
6.0808725 -1.7354214 -1.4599323 111
6.0808725 -1.7354214 -1.4599323 109
6.0850005 -1.7563583 -1.4621818 111
6.0850005 -1.7563583 -1.4621818 111
6.0797038 -1.7746053 -1.4621818 111
6.0703506 -1.7718751 -1.4599323 109
6.0743527 -1.7928364 -1.4621818 111
6.0556626 -1.78732 -1.4576828 109
6.0484648 -1.8115283 -1.4576828 109
6.0577989 -1.8143239 -1.4599323 111
6.0541582 -1.8264358 -1.4599323 111
6.035501 -1.8208073 -1.4554334 111
6.037487 -1.8477862 -1.4576828 111
6.037487 -1.8477862 -1.4576828 109
6.0430903 -1.8627276 -1.4599323 111
6.0337791 -1.8598576 -1.4576828 111
6.0262914 -1.8839777 -1.4576828 109
6.0355911 -1.886885 -1.4599323 111
6.0225115 -1.8960265 -1.4576828 111
6.0318055 -1.8989525 -1.4599323 111
6.0055971 -1.9171382 -1.4554334 109
6.0148792 -1.9201013 -1.4576828 111
6.0183649 -1.9411283 -1.4599323 109
6.0090919 -1.9381373 -1.4576828 109
5.9939861 -1.953137 -1.4554334 109
5.9939861 -1.953137 -1.4554334 109
5.997355 -1.9741567 -1.4576828 109
5.9880996 -1.9711102 -1.4554334 111
5.9821596 -1.9890655 -1.4554334 109
5.9914055 -1.9921399 -1.4576828 109
5.9741554 -2.0129783 -1.4554334 111
5.9833889 -2.0160894 -1.4576828 111
5.9793448 -2.0280523 -1.4576828 111
5.9793448 -2.0280523 -1.4576828 111
5.9619699 -2.0487866 -1.4554334 109
5.9527555 -2.0456202 -1.4531838 111
5.9670691 -2.0638916 -1.4576828 111
5.9578605 -2.0607066 -1.4554334 111
5.9495702 -2.0845215 -1.4554334 111
5.9495702 -2.0845215 -1.4554334 111
5.9545784 -2.0996566 -1.4576828 111
5.9453893 -2.0964165 -1.4554334 111
5.9461322 -2.1234581 -1.4576828 109
5.9277797 -2.1169043 -1.4531838 111
5.9214025 -2.1346779 -1.4531838 109
5.9305687 -2.1379824 -1.4554334 109
5.9241281 -2.1557646 -1.4554334 109
5.9149718 -2.1524327 -1.4531838 109
5.9084878 -2.1701677 -1.4531838 109
5.917634 -2.1735272 -1.4554334 111
5.9019508 -2.1878834 -1.4531838 111
5.911087 -2.1912704 -1.4554334 111
5.9044867 -2.2089937 -1.4554334 111
5.8953605 -2.2055795 -1.4531838 109
5.8796015 -2.2198141 -1.4509343 109
5.8978329 -2.2266972 -1.4554334 109
5.8797774 -2.2467926 -1.4531838 109
5.8888788 -2.2502706 -1.4554334 111
5.8570824 -2.2515552 -1.4486848 111
5.8752718 -2.2585475 -1.4531838 111
5.8752713 -2.2855632 -1.4554334 109
5.8661909 -2.2820306 -1.4531838 109
5.8683882 -2.3031785 -1.4554334 109
5.8683882 -2.3031785 -1.4554334 111
5.8342743 -2.3100126 -1.4486848 109
5.8252149 -2.3064256 -1.4464353 100
5.8363667 -2.3311191 -1.4509343 111
5.8363667 -2.3311191 -1.4509343 111
5.8293467 -2.3486176 -1.4509343 111
5.8203092 -2.3449764 -1.4486848 111
5.8132482 -2.3624268 -1.4486848 111
5.8222747 -2.3660951 -1.4509343 111
5.8151503 -2.3835511 -1.4509343 111
5.7971187 -2.3761604 -1.4464353 111
5.7899642 -2.3935411 -1.4464353 111
5.7899642 -2.3935411 -1.4464353 111
5.764771 -2.4034011 -1.4419363 111
5.8007445 -2.4183991 -1.4509343 111
5.7754989 -2.4282374 -1.4464353 112
5.784481 -2.432014 -1.4486848 112
5.7592173 -2.4417496 -1.4441857 111
5.7592173 -2.4417496 -1.4441857 111
5.7518663 -2.4590163 -1.4441857 111
5.7608256 -2.4628465 -1.4464353 112
5.7419844 -2.4820039 -1.4441857 111
5.7419844 -2.4820039 -1.4441857 109
5.7255802 -2.495326 -1.4419363 109
5.7255802 -2.495326 -1.4419363 109
5.7269888 -2.5164111 -1.4441857 109
5.7180686 -2.5124915 -1.4419363 109
5.7194138 -2.5335808 -1.4441857 109
5.7194138 -2.5335808 -1.4441857 109
5.7028909 -2.5467544 -1.4419363 109
5.6939936 -2.5427814 -1.4396868 111
5.6952248 -2.5638516 -1.4419363 109
5.6952248 -2.5638516 -1.4419363 109
5.6786346 -2.5768993 -1.4396868 109
5.6786346 -2.5768993 -1.4396868 109
5.6886001 -2.6020296 -1.4441857 111
5.6708784 -2.5939236 -1.4396868 111
5.6630712 -2.6109245 -1.4396868 111
5.6719198 -2.6150041 -1.4419363 111
5.6640491 -2.6320081 -1.4419363 111
5.6640491 -2.6320081 -1.4419363 111
5.6473036 -2.6448557 -1.4396868 111
5.6384797 -2.6407232 -1.4374373 111
5.627872 -2.6632559 -1.4374373 109
5.6102571 -2.6549201 -1.4329382 109
5.6137352 -2.6703207 -1.4351877 103
5.6049361 -2.6661353 -1.4329382 102
5.6030092 -2.6927543 -1.4351877 109
5.6117911 -2.696975 -1.4374373 109
5.5949054 -2.7095513 -1.4351877 101
5.5949054 -2.7095513 -1.4351877 98
5.5779953 -2.7220504 -1.4329382 96
5.5867519 -2.7263238 -1.4351877 98
5.56106 -2.7344728 -1.4306887 95
5.5785475 -2.7430718 -1.4351877 96
5.5702934 -2.759795 -1.4351877 94
5.5702934 -2.759795 -1.4351877 97
5.5445533 -2.7677896 -1.4306887 95
5.5532708 -2.7721415 -1.4329382 101
5.5623393 -2.797545 -1.4374373 114
5.571044 -2.8019228 -1.4396868 115
5.5452299 -2.8098152 -1.4351877 114
5.5539217 -2.8142192 -1.4374373 109
5.5280972 -2.8220081 -1.4329382 101
5.5194187 -2.8175778 -1.4306887 100
5.5081043 -2.839633 -1.4306887 99
5.5081043 -2.839633 -1.4306887 99
5.5024142 -2.8506434 -1.4306887 100
5.5024142 -2.8506434 -1.4306887 101
5.4996014 -2.877147 -1.4329382 109
5.4996014 -2.877147 -1.4329382 111
5.5081849 -2.9027181 -1.4374373 114
5.4995651 -2.8981755 -1.4351877 115
5.4908457 -2.9146609 -1.4351877 118
5.4994521 -2.9192295 -1.4374373 115
5.4734845 -2.9265263 -1.4329382 112
5.4820771 -2.9311204 -1.4351877 109
5.4475226 -2.9336934 -1.4284391 109
5.4475226 -2.9336934 -1.4284391 111
5.4386973 -2.9500229 -1.4284391 111
5.4301324 -2.9453771 -1.4261897 111
5.4469242 -2.9756684 -1.4329382 111
5.4554753 -2.9803398 -1.4351877 111
5.426446 -2.9927266 -1.4306887 111
5.426446 -2.9927266 -1.4306887 109
5.4119272 -2.9988511 -1.4284391 109
5.4119272 -2.9988511 -1.4284391 109
5.3998885 -3.0204747 -1.4284391 111
5.408392 -3.0252314 -1.4306887 109
5.3853426 -3.0264947 -1.4261897 109
5.3938365 -3.0312684 -1.4284391 109
5.3731933 -3.0480118 -1.4261897 109
5.3731933 -3.0480118 -1.4261897 109
5.3724856 -3.0689507 -1.4284391 109
5.3724856 -3.0689507 -1.4284391 109
5.3632545 -3.0850542 -1.4284391 109
5.3717008 -3.0899127 -1.4306887 111
5.3455439 -3.0962465 -1.4261897 109
5.3539753 -3.10113 -1.4284391 109
5.353065 -3.122087 -1.4306887 111
5.3446479 -3.117178 -1.4284391 109
5.3268704 -3.1282637 -1.4261897 102
5.3352723 -3.133198 -1.4284391 101
5.3174615 -3.1442304 -1.4261897 96
5.3174615 -3.1442304 -1.4261897 96
5.3132095 -3.1704679 -1.4284391 97
5.3132095 -3.1704679 -1.4284391 98
5.3068581 -3.181088 -1.4284391 104
5.3068581 -3.181088 -1.4284391 109
5.3024282 -3.2073328 -1.4306887 109
5.2940912 -3.2022898 -1.4284391 111
5.3043303 -3.2229908 -1.4329382 112
5.3043303 -3.2229908 -1.4329382 109
5.2664757 -3.2289035 -1.4261897 109
5.2830892 -3.2390895 -1.4306887 111
5.2683039 -3.2445395 -1.4284391 109
5.2766004 -3.249649 -1.4306887 111
5.2718353 -3.2758722 -1.4329382 111
5.2718353 -3.2758722 -1.4329382 109
5.2619843 -3.2916729 -1.4329382 109
5.2537236 -3.2865055 -1.4306887 109
5.2603307 -3.3126361 -1.4351877 111
5.2438407 -3.3022518 -1.4306887 109
5.2421398 -3.3231852 -1.4329382 111
5.2339101 -3.3179684 -1.4306887 109
5.2321463 -3.3388968 -1.4329382 109
5.2239327 -3.3336551 -1.4306887 109
5.218749 -3.3597987 -1.4329382 109
5.2269416 -3.365073 -1.4351877 109
5.212019 -3.3702292 -1.4329382 109
5.2038369 -3.3649385 -1.4306887 109
5.1903358 -3.3857269 -1.4306887 109
5.1903358 -3.3857269 -1.4306887 103
5.1917038 -3.4014406 -1.4329382 111
5.1835537 -3.3961008 -1.4306887 109
5.1780567 -3.4221802 -1.4329382 109
5.1861854 -3.4275525 -1.4351877 111
5.1712022 -3.4325294 -1.4329382 109
5.1793199 -3.4379179 -1.4351877 111
5.1412377 -3.4423447 -1.4284391 109
5.1574306 -3.4531868 -1.4329382 109
5.1389675 -3.4631982 -1.4306887 109
5.147048 -3.4686434 -1.4329382 109
5.1366186 -3.4840689 -1.4329382 109
5.1366186 -3.4840689 -1.4329382 109
5.1261435 -3.4994631 -1.4329382 109
5.1180959 -3.4939694 -1.4306887 109
5.1236529 -3.5203435 -1.4351877 109
5.115622 -3.5148258 -1.4329382 109
5.101522 -3.5352602 -1.4329382 109
5.1095304 -3.5408099 -1.4351877 109
5.0944409 -3.5454562 -1.4329382 109
5.0864434 -3.5398903 -1.4306887 109
5.0722432 -3.5602076 -1.4306887 111
5.0802183 -3.5658054 -1.4329382 109
5.0730767 -3.5759587 -1.4329382 109
5.0730767 -3.5759587 -1.4329382 109
5.0666738 -3.6018679 -1.4351877 111
5.0587325 -3.5962224 -1.4329382 111
5.0356693 -3.5950098 -1.4284391 111
5.0435996 -3.6006713 -1.4306887 109
5.0291567 -3.6208167 -1.4306887 111
5.0449715 -3.6322029 -1.4351877 109
5.0340524 -3.6473215 -1.4351877 109
5.0261617 -3.6416047 -1.4329382 109
5.0073414 -3.6509264 -1.4306887 109
4.9994683 -3.6451859 -1.4284391 103
5.0042219 -3.6716959 -1.4329382 109
5.0042219 -3.6716959 -1.4329382 109
5.0088615 -3.6982672 -1.4374373 109
4.9931846 -3.686692 -1.4329382 109
4.9742808 -3.6958439 -1.4306887 102
4.9742808 -3.6958439 -1.4306887 103
4.9631705 -3.7107501 -1.4306887 109
4.9631705 -3.7107501 -1.4306887 109
4.9638486 -3.7423043 -1.4351877 109
4.9560685 -3.7364388 -1.4329382 105
4.9485855 -3.7463434 -1.4329382 109
4.9563541 -3.7522247 -1.4351877 109
4.9258156 -3.7601955 -1.4306887 109
4.9413056 -3.7720199 -1.4351877 109
4.9260187 -3.7759674 -1.4329382 109
4.9260187 -3.7759674 -1.4329382 109
4.9031658 -3.7896824 -1.4306887 103
4.9108753 -3.7956412 -1.4329382 104
4.8994665 -3.8103566 -1.4329382 100
4.8994665 -3.8103566 -1.4329382 98
4.8956866 -3.8310425 -1.4351877 109
4.8880134 -3.825038 -1.4329382 102
4.8841715 -3.8457124 -1.4351877 102
4.8765163 -3.8396847 -1.4329382 101
4.864975 -3.8542969 -1.4329382 101
4.864975 -3.8542969 -1.4329382 103
4.8533902 -3.8688745 -1.4329382 102
4.8457713 -3.8628008 -1.4306887 103
4.8417621 -3.8834171 -1.4329382 100
4.8569636 -3.8956101 -1.4374373 109
4.8376727 -3.9040442 -1.4351877 102
4.83009 -3.8979249 -1.4329382 102
4.8183746 -3.9123976 -1.4329382 102
4.8259387 -3.9185395 -1.4351877 103
4.8177652 -3.943984 -1.4374373 109
4.810226 -3.9378119 -1.4351877 102
4.7983909 -3.952225 -1.4351877 109
4.7983909 -3.952225 -1.4351877 102
4.7790103 -3.9603851 -1.4329382 101
4.7940149 -3.9728196 -1.4374373 109
4.7745914 -3.9809439 -1.4351877 109
4.7671075 -3.9747043 -1.4329382 102
4.770092 -4.0015121 -1.4374373 109
4.7626271 -3.9952497 -1.4351877 109
4.7431736 -4.0032353 -1.4329382 102
4.7357278 -3.9969506 -1.4306887 109
4.7311425 -4.0174465 -1.4329382 103
4.7534242 -4.0363669 -1.4396868 111
4.7412939 -4.0506091 -1.4396868 109
4.7412939 -4.0506091 -1.4396868 109
4.7217317 -4.0584636 -1.4374373 109
4.7291207 -4.064815 -1.4396868 109
4.7242751 -4.0853572 -1.4419363 111
4.7169051 -4.0789838 -1.4396868 111
4.7046471 -4.0931163 -1.4396868 111
4.7046471 -4.0931163 -1.4396868 111
4.6850147 -4.1007943 -1.4374373 109
4.6996779 -4.1136293 -1.4419363 109
4.6685739 -4.1195016 -1.4374373 109
4.67588 -4.125948 -1.4396868 109
4.6676188 -4.1352916 -1.4396868 109
4.674912 -4.1417532 -1.4419363 109
4.6510401 -4.1539292 -1.4396868 109
4.6292386 -4.1344576 -1.4329382 109
4.6385574 -4.1678634 -1.4396868 109
4.6385574 -4.1678634 -1.4396868 109
4.6188049 -4.1752262 -1.4374373 103
4.6332612 -4.1882944 -1.4419363 109
4.6062584 -4.189064 -1.4374373 103
4.6134672 -4.1956196 -1.4396868 103
4.5936708 -4.2028637 -1.4374373 109
4.6008596 -4.2094412 -1.4396868 102
4.5810413 -4.2166257 -1.4374373 101
4.5953794 -4.2298236 -1.4419363 109
4.57552 -4.2369704 -1.4396868 103
4.57552 -4.2369704 -1.4396868 109
4.5627885 -4.2506776 -1.4396868 102
4.5556593 -4.2440362 -1.4374373 101
4.5500159 -4.2643471 -1.4396868 104
4.5429068 -4.2576838 -1.4374373 101
4.5329223 -4.2825127 -1.4396868 109
4.5400052 -4.2892041 -1.4419363 111
4.5243483 -4.2915702 -1.4396868 109
4.5172791 -4.2848644 -1.4374373 102
4.5001035 -4.3028994 -1.4374373 103
4.5001035 -4.3028994 -1.4374373 101
4.5082412 -4.3366451 -1.4441857 109
4.4941969 -4.3231354 -1.4396868 109
4.4882088 -4.3433743 -1.4419363 109
4.474205 -4.3298225 -1.4374373 102
4.4681773 -4.3500223 -1.4396868 102
4.4611955 -4.3432255 -1.4374373 103
4.4551072 -4.3634071 -1.4396868 109
4.4690294 -4.3770428 -1.4441857 109
4.4419966 -4.3767529 -1.4396868 104
4.4489374 -4.3835917 -1.4419363 103
4.4357667 -4.3969188 -1.4419363 104
4.4357667 -4.3969188 -1.4419363 109
4.4181433 -4.4146266 -1.4419363 109
4.4112511 -4.4077396 -1.4396868 103
4.4093056 -4.4234543 -1.4419363 100
4.4161844 -4.4303551 -1.4441857 99
4.3984275 -4.4479842 -1.4441857 98
4.4052787 -4.4549127 -1.4464353 98
4.3895226 -4.4567723 -1.4441857 93
4.3895226 -4.4567723 -1.4441857 96
4.3716607 -4.4742947 -1.4441857 99
4.364851 -4.4673252 -1.4419363 101
4.3559079 -4.4760461 -1.4419363 102
4.3762941 -4.4969945 -1.4486848 109
4.3379688 -4.493434 -1.4419363 106
4.3379688 -4.493434 -1.4419363 102
4.3424802 -4.5161476 -1.4464353 100
4.3559871 -4.5301948 -1.4509343 109
4.3176556 -4.5264311 -1.4441857 101
4.3176556 -4.5264311 -1.4441857 103
4.3040566 -4.5393634 -1.4441857 109
4.3040566 -4.5393634 -1.4441857 103
4.3104682 -4.5735273 -1.4509343 109
4.2904196 -4.5522552 -1.4441857 101
4.2788305 -4.576498 -1.4464353 102
4.2854853 -4.5836153 -1.4486848 109
4.2630286 -4.5779157 -1.4441857 103
4.2763095 -4.5921774 -1.4486848 103
4.2512946 -4.6020885 -1.4464353 109
4.2512946 -4.6020885 -1.4464353 106
4.2354846 -4.6034112 -1.4441857 104
4.2486796 -4.6177521 -1.4486848 103
4.2301745 -4.6347098 -1.4486848 102
4.236743 -4.6419067 -1.4509343 99
4.2208967 -4.6431608 -1.4486848 103
4.2143426 -4.635951 -1.4464353 103
4.2022901 -4.6600075 -1.4486848 103
4.2153406 -4.6744795 -1.4531838 109
4.2012982 -4.6871042 -1.4531838 109
4.1947947 -4.6798487 -1.4509343 109
4.1872182 -4.699687 -1.4531838 109
4.1936998 -4.7069621 -1.4554334 109
4.1666403 -4.7049332 -1.4509343 103
4.1795602 -4.719522 -1.4554334 109
4.146069 -4.7100983 -1.4486848 100
4.1525068 -4.717412 -1.4509343 95
4.1400127 -4.7413239 -1.4531838 101
4.133604 -4.733984 -1.4509343 102
4.1305218 -4.7495942 -1.4531838 103
4.1369157 -4.7569466 -1.4554334 97
4.1178551 -4.7734561 -1.4554334 94
4.1242194 -4.7808342 -1.4576828 94
4.1019502 -4.774292 -1.4531838 94
4.1082997 -4.7816825 -1.4554334 100
4.0891404 -4.7980771 -1.4554334 98
4.0891404 -4.7980771 -1.4554334 101
4.0858412 -4.8136744 -1.4576828 102
4.079536 -4.8062458 -1.4554334 99
4.0602784 -4.8225255 -1.4554334 95
4.0602784 -4.8225255 -1.4554334 97
4.0520458 -4.8421574 -1.4576828 101
4.0457926 -4.8346848 -1.4554334 99
4.0375013 -4.8542914 -1.4576828 109
4.0312705 -4.8468003 -1.4554334 105
4.0229201 -4.8663821 -1.4576828 109
4.0229201 -4.8663821 -1.4576828 109
4.0144887 -4.8859572 -1.4599323 109
4.0144887 -4.8859572 -1.4599323 109
3.9936495 -4.8904319 -1.4576828 109
3.9874866 -4.882885 -1.4554334 102
3.9789603 -4.902391 -1.4576828 109
3.97282 -4.8948255 -1.4554334 109
3.9703529 -4.9218893 -1.4599323 109
3.9703529 -4.9218893 -1.4599323 109
3.9555695 -4.9337783 -1.4599323 105
3.9555695 -4.9337783 -1.4599323 109
3.9479315 -4.9648142 -1.4644314 109
3.9297383 -4.9419346 -1.4576828 109
3.9258957 -4.9574227 -1.4599323 109
3.9319448 -4.9650612 -1.4621818 102
3.9000161 -4.9654241 -1.4576828 96
3.9120531 -4.9807491 -1.4621818 99
3.8851023 -4.9771018 -1.4576828 93
3.8970933 -4.9924631 -1.4621818 98
3.8820984 -5.0041318 -1.4621818 100
3.8820984 -5.0041318 -1.4621818 103
3.873018 -5.0234723 -1.4644314 101
3.873018 -5.0234723 -1.4644314 100
3.8579302 -5.0350685 -1.4644314 100
3.8520041 -5.0273342 -1.4621818 100
3.8369048 -5.0388675 -1.4621818 104
3.8487105 -5.0543718 -1.4666809 109
3.8217709 -5.0503554 -1.4621818 99
3.8335302 -5.0658951 -1.4666809 100
3.812459 -5.0695858 -1.4644314 102
3.8183153 -5.077373 -1.4666809 102
3.7914 -5.073195 -1.4621818 104
3.7972331 -5.0810003 -1.4644314 101
3.7819729 -5.0923691 -1.4644314 103
3.7761633 -5.0845466 -1.4621818 102
3.7666788 -5.1036921 -1.4644314 102
3.7724648 -5.1115317 -1.4666809 109
3.7462339 -5.1187177 -1.4644314 109
3.7519886 -5.1265807 -1.4666809 109
3.7308609 -5.1299334 -1.4644314 103
3.7365921 -5.1378136 -1.4666809 102
3.7268691 -5.1568975 -1.4689304 109
3.7268691 -5.1568975 -1.4689304 109
3.705698 -5.1601405 -1.4666809 109
3.7113817 -5.1680546 -1.4689304 109
3.6845412 -5.1633029 -1.4644314 109
3.7015207 -5.1870971 -1.4711798 109
3.6859426 -5.1981783 -1.4711798 109
3.6746707 -5.1822815 -1.4666809 103
3.6591072 -5.1932821 -1.4666809 109
3.6647193 -5.2012477 -1.4689304 109
3.6435111 -5.204236 -1.4666809 102
3.6435111 -5.204236 -1.4666809 102
3.6223178 -5.2071447 -1.4644314 109
3.627882 -5.2151432 -1.4666809 109
3.6233006 -5.242034 -1.4711798 103
3.6177604 -5.2340188 -1.4689304 104
3.6023035 -5.2564855 -1.4711798 109
3.6023035 -5.2564855 -1.4711798 109
3.5807993 -5.2475824 -1.4666809 109
3.5807993 -5.2475824 -1.4666809 109
3.5652401 -5.2699342 -1.4689304 103
3.5761597 -5.2860746 -1.4734294 109
3.565721 -5.3048663 -1.4756789 111
3.5602856 -5.2967796 -1.4734294 109
3.5281453 -5.2831278 -1.4666809 109
3.5443792 -5.3074365 -1.4734294 109
3.528441 -5.3180456 -1.4734294 109
3.5230539 -5.3099265 -1.4711798 109
3.512471 -5.3286071 -1.4734294 109
3.5178335 -5.3367424 -1.4756789 109
3.4964693 -5.3391204 -1.4734294 109
3.4911313 -5.3309693 -1.4711798 109
3.4804363 -5.349586 -1.4734294 109
3.4804363 -5.349586 -1.4734294 109
3.469661 -5.3681865 -1.4756789 109
3.469661 -5.3681865 -1.4756789 109
3.4482763 -5.3703723 -1.4734294 109
3.4535408 -5.378571 -1.4756789 109
3.4267673 -5.3841224 -1.4734294 111
3.431999 -5.3923421 -1.4756789 109
3.4212074 -5.3991957 -1.4756789 109
3.4212074 -5.3991957 -1.4756789 109
3.3944011 -5.4045858 -1.4734294 104
3.3995833 -5.412837 -1.4756789 109
3.3887508 -5.4196253 -1.4756789 109
3.3887508 -5.4196253 -1.4756789 111
3.3721781 -5.4414191 -1.4779284 111
3.3670454 -5.4331369 -1.4756789 111
3.3561723 -5.4398603 -1.4756789 109
3.3664045 -5.4564452 -1.4801779 111
3.3343861 -5.4532413 -1.4756789 109
3.339469 -5.4615541 -1.4779284 109
3.3230693 -5.4715481 -1.4779284 111
3.3230693 -5.4715481 -1.4779284 109
3.3016069 -5.4731493 -1.4756789 109
3.3066397 -5.4814925 -1.4779284 109
3.2901804 -5.4913878 -1.4779284 109
3.2951882 -5.4997463 -1.4801779 109
3.2736914 -5.5012336 -1.4779284 109
3.2836571 -5.5179801 -1.4824275 111
3.2516603 -5.5142846 -1.4779284 109
3.2516603 -5.5142846 -1.4779284 109
3.2455578 -5.5291796 -1.4801779 111
3.2406254 -5.5207767 -1.4779284 109
3.2185163 -5.5336947 -1.4779284 109
3.2234151 -5.5421176 -1.4801779 109
3.2220883 -5.5654182 -1.484677 109
3.2123244 -5.5485535 -1.4801779 109
3.1852565 -5.5529065 -1.4779284 109
3.199801 -5.5782619 -1.484677 109
3.188638 -5.5846505 -1.484677 109
3.188638 -5.5846505 -1.484677 109
3.1614766 -5.5888796 -1.4824275 111
3.1662741 -5.5973601 -1.484677 109
3.1542397 -5.6153293 -1.4869264 109
3.1590116 -5.6238246 -1.489176 111
3.1468723 -5.6417856 -1.4914255 111
3.1373794 -5.6247668 -1.4869264 109
3.125212 -5.6426773 -1.489176 109
3.125212 -5.6426773 -1.489176 109
3.1035745 -5.6434894 -1.4869264 109
3.0988793 -5.6349516 -1.484677 109
3.0912998 -5.6613269 -1.489176 109
3.0912998 -5.6613269 -1.489176 109
3.069658 -5.6620092 -1.4869264 109
3.069658 -5.6620092 -1.4869264 109
3.0515952 -5.682827 -1.489176 109
3.0562048 -5.6914115 -1.4914255 109
3.0448158 -5.6975121 -1.4914255 109
3.0356309 -5.680325 -1.4869264 111
3.0174434 -5.7010341 -1.489176 109
3.0174434 -5.7010341 -1.489176 109
3.0105762 -5.7156787 -1.4914255 109
3.0151172 -5.7242994 -1.493675 111
2.9921958 -5.7363143 -1.493675 109
2.9876895 -5.727675 -1.4914255 111
2.9704931 -5.7366123 -1.4914255 111
2.9749734 -5.745265 -1.493675 111
2.9577243 -5.7541637 -1.493675 109
2.9621787 -5.7628298 -1.4959245 109
2.9493053 -5.7803698 -1.4981741 109
2.9448769 -5.7716904 -1.4959245 109
2.9231462 -5.7718067 -1.493675 109
2.9275486 -5.780499 -1.4959245 111
2.9058177 -5.78055 -1.493675 109
2.9145701 -5.7979612 -1.4981741 109
2.888463 -5.7892413 -1.493675 109
2.888463 -5.7892413 -1.493675 109
2.8754063 -5.8066125 -1.4959245 109
2.8754063 -5.8066125 -1.4959245 109
2.8708665 -5.8414464 -1.502673 111
2.8622711 -5.8239574 -1.4981741 109
2.8447864 -5.8325181 -1.4981741 109
2.8447864 -5.8325181 -1.4981741 109
2.8214338 -5.8438501 -1.4981741 109
2.8299065 -5.8613997 -1.502673 111
2.8139591 -5.8582644 -1.5004236 111
2.8181779 -5.8670473 -1.502673 109
2.78632 -5.8606734 -1.4981741 109
2.7946873 -5.8782735 -1.502673 109
2.7728827 -5.8778186 -1.5004236 109
2.77704 -5.886631 -1.502673 111
2.7552369 -5.8861108 -1.5004236 109
2.7593677 -5.8949356 -1.502673 109
2.7416704 -5.9031868 -1.502673 109
2.7457747 -5.912024 -1.5049225 111
2.7198708 -5.9025359 -1.5004236 109
2.7239485 -5.9113855 -1.502673 109
2.706202 -5.9195309 -1.502673 109
2.706202 -5.9195309 -1.502673 109
2.692456 -5.9364963 -1.5049225 111
2.692456 -5.9364963 -1.5049225 114
2.6746345 -5.9445472 -1.5049225 115
2.6786323 -5.9534326 -1.5071721 114
2.6567888 -5.9525442 -1.5049225 114
2.6567888 -5.9525442 -1.5049225 115
2.6408286 -5.9809508 -1.5094216 118
2.636893 -5.9720373 -1.5071721 115
2.6288614 -5.9862204 -1.5094216 114
2.6288614 -5.9862204 -1.5094216 115
2.6010137 -5.987751 -1.5071721 115
2.6087778 -6.0056248 -1.5116711 120
2.5890329 -5.9929409 -1.5071721 115
2.5967615 -6.0108304 -1.5116711 121
2.5765257 -6.0301294 -1.5139205 121
2.5688689 -6.0122089 -1.5094216 114
2.5530288 -6.0083671 -1.5071721 109
2.5644603 -6.0352702 -1.5139205 111
2.528975 -6.0185313 -1.5071721 103
2.528975 -6.0185313 -1.5071721 99
2.5146556 -6.0350852 -1.5094216 102
2.5146556 -6.0350852 -1.5094216 103
2.4928186 -6.0335965 -1.5071721 103
2.5002599 -6.0516071 -1.5116711 109
2.4784002 -6.0500646 -1.5094216 109
2.4820938 -6.0590811 -1.5116711 111
2.467572 -6.0755272 -1.5139205 111
2.467572 -6.0755272 -1.5139205 111
2.4432502 -6.0853491 -1.5139205 111
2.4432502 -6.0853491 -1.5139205 111
2.4310746 -6.0902233 -1.5139205 111
2.4382992 -6.1083221 -1.5184196 111
2.4102702 -6.1089625 -1.5161701 111
2.4102702 -6.1089625 -1.5161701 111
2.3944895 -6.1047001 -1.5139205 112
2.3909316 -6.0956292 -1.5116711 111
2.3665302 -6.105144 -1.5116711 111
2.3665302 -6.105144 -1.5116711 111
2.3648255 -6.1371412 -1.5184196 114
2.3683288 -6.1462331 -1.5206691 115
2.333324 -6.1283393 -1.5139205 114
2.3298569 -6.1192336 -1.5116711 111
2.3114886 -6.1261954 -1.5116711 109
2.308049 -6.1170793 -1.5094216 109
2.2999244 -6.1513557 -1.5161701 111
2.2896874 -6.1239758 -1.5094216 111
2.2780752 -6.1490908 -1.5139205 112
2.28146 -6.1582274 -1.5161701 114
2.2562602 -6.1467505 -1.5116711 114
2.2562602 -6.1467505 -1.5116711 114
2.2411399 -6.1626487 -1.5139205 114
2.2411399 -6.1626487 -1.5139205 114
2.2193391 -6.1601772 -1.5116711 114
2.2226417 -6.1693444 -1.5139205 115
2.1946807 -6.1690054 -1.5116711 117
2.1946807 -6.1690054 -1.5116711 117
2.179091 -6.1641955 -1.5094216 117
2.179091 -6.1641955 -1.5094216 115
2.1576276 -6.1820621 -1.5116711 117
2.1576276 -6.1820621 -1.5116711 117
2.1452591 -6.1863651 -1.5116711 118
2.1452591 -6.1863651 -1.5116711 117
2.1204965 -6.1948967 -1.5116711 118
2.1204965 -6.1948967 -1.5116711 117
2.1019022 -6.2012305 -1.5116711 118
2.1019022 -6.2012305 -1.5116711 117
2.080189 -6.1982708 -1.5094216 115
2.0770888 -6.1890335 -1.5071721 115
2.0677297 -6.2229767 -1.5139205 114
2.0677297 -6.2229767 -1.5139205 117
2.0460069 -6.2198958 -1.5116711 114
2.0399175 -6.2013845 -1.5071721 112
2.0243211 -6.2167411 -1.5094216 114
2.0243211 -6.2167411 -1.5094216 114
2.0026727 -6.2135124 -1.5071721 115
2.0026727 -6.2135124 -1.5071721 114
1.9869845 -6.228775 -1.5094216 111
1.9899457 -6.2380581 -1.5116711 112
1.9682893 -6.2347078 -1.5094216 111
1.9712226 -6.2439995 -1.5116711 111
1.9524817 -6.2498851 -1.5116711 114
1.9466708 -6.2312846 -1.5071721 114
1.9279681 -6.2370963 -1.5071721 114
1.9308457 -6.2464056 -1.5094216 114
1.9030044 -6.2447581 -1.5071721 112
1.9058448 -6.2540789 -1.5094216 112
1.887074 -6.259768 -1.5094216 114
1.8842616 -6.2504392 -1.5071721 111
1.8655019 -6.2560639 -1.5071721 112
1.8655019 -6.2560639 -1.5071721 112
1.843969 -6.2522864 -1.5049225 111
1.8494816 -6.270978 -1.5094216 112
1.8252039 -6.2577901 -1.5049225 112
1.8252039 -6.2577901 -1.5049225 112
1.8064224 -6.2632375 -1.5049225 111
1.8064224 -6.2632375 -1.5049225 112
1.7876245 -6.2686286 -1.5049225 112
1.7902966 -6.2779989 -1.5071721 112
1.7688106 -6.2739635 -1.5049225 112
1.7661667 -6.2645855 -1.502673 114
1.7447492 -6.2604694 -1.5004236 112
1.747365 -6.2698555 -1.502673 112
1.7285476 -6.2750697 -1.502673 112
1.7285476 -6.2750697 -1.502673 112
1.7008835 -6.2725291 -1.5004236 112
1.7034335 -6.2819333 -1.502673 112
1.6908662 -6.2853279 -1.502673 111
1.6908662 -6.2853279 -1.502673 111
1.6657115 -6.2920408 -1.502673 111
1.6632179 -6.2826219 -1.5004236 111
1.6481746 -6.2765112 -1.4981741 109
1.6481746 -6.2765112 -1.4981741 111
1.5109525 -5.8490891 -1.3946966 154
1.4207828 -5.5000305 -1.3114647 124
1.3970501 -5.4759445 -1.3047161 136
1.3970501 -5.4759445 -1.3047161 154
1.3806161 -5.4801106 -1.3047161 171
1.3782357 -5.4706626 -1.3024666 184
1.3594656 -5.4653168 -1.3002172 189
1.3594656 -5.4653168 -1.3002172 190
1.3453871 -5.4788332 -1.3024666 205
1.3453871 -5.4788332 -1.3024666 222
1.3289446 -5.4828448 -1.3024666 214
1.3289446 -5.4828448 -1.3024666 223
1.314757 -5.4962835 -1.3047161 234
1.3102233 -5.4773307 -1.3002172 220
1.2905325 -5.492013 -1.3024666 229
1.2905325 -5.492013 -1.3024666 234
1.2817558 -5.5040727 -1.3047161 229
1.2773359 -5.4850931 -1.3002172 225
1.2575574 -5.4996572 -1.3024666 223
1.2640731 -5.5281529 -1.3092152 237
1.2465556 -5.5021615 -1.3024666 225
1.2400967 -5.4736528 -1.2957181 168
1.2203071 -5.488081 -1.2979676 120
1.2181922 -5.4785695 -1.2957181 127
1.2030408 -5.4619637 -1.291219 120
1.1988491 -5.4429321 -1.28672 75
1.1503162 -5.323873 -1.2574764 19
1.1359116 -5.2572055 -1.2417299 18
1.1152011 -5.2118268 -1.2304822 19
1.1050073 -5.164187 -1.2192347 17
1.0763392 -5.1304212 -1.2102367 23
1.0603342 -5.0541325 -1.1922406 19
1.037279 -5.0191221 -1.1832426 15
1.025447 -4.9618702 -1.1697454 14
0.99889648 -4.9076366 -1.1562485 12
0.98917961 -4.8598967 -1.1450008 19
0.96693659 -4.8246274 -1.1360028 29
0.95927769 -4.7864127 -1.1270047 15
0.93171173 -4.722353 -1.1112581 12
0.92605358 -4.693675 -1.1045097 14
0.90172809 -4.6686406 -1.0977612 14
0.89064127 -4.6112394 -1.084264 10
0.87044501 -4.5555882 -1.070767 10
0.86861634 -4.5460176 -1.0685176 13
0.83431208 -4.4632554 -1.0482719 16
0.82536024 -4.4153666 -1.0370244 13
0.80767179 -4.3691015 -1.0257769 10
0.80235815 -4.3403573 -1.0190283 10
0.77979177 -4.3147669 -1.0122797 12
0.77286029 -4.2764134 -1.0032817 11
0.7532112 -4.2403388 -0.99428368 17
0.74809891 -4.2115583 -0.98753512 38
0.72875965 -4.1753893 -0.97853708 17
0.72708434 -4.1657906 -0.9762876 13
0.70635116 -4.119935 -0.96504003 9
0.69976515 -4.081521 -0.95604199 10
0.68266439 -4.0547762 -0.94929343 8
0.67619365 -4.0163426 -0.9402954 11
0.65778613 -3.9798999 -0.93129736 8
0.65460843 -3.9606733 -0.92679834 10
0.63648349 -3.9241471 -0.91780031 12
0.63024342 -3.8856752 -0.90880227 13
0.61552131 -3.8683031 -0.90430325 9
0.60786557 -3.82019 -0.89305568 10
0.58889091 -3.7738605 -0.88180816 11
0.58588636 -3.754606 -0.87730908 16
0.57167315 -3.7370834 -0.87281007 45
0.56872636 -3.7178202 -0.86831105 111
0.56334829 -3.7580538 -0.87730908 151
0.56334829 -3.7580538 -0.87730908 165
0.55207163 -3.7597268 -0.87730908 180
0.53840536 -3.7715509 -0.87955862 177
0.53702837 -3.761905 -0.87730908 175
0.52574021 -3.7634993 -0.87730908 187
0.52574021 -3.7634993 -0.87730908 187
0.5157665 -3.7747135 -0.87955862 189
0.51708555 -3.7843673 -0.88180816 193
0.50444001 -3.7762437 -0.87955862 195
0.50314993 -3.7665858 -0.87730908 189
0.49437019 -3.7874019 -0.88180816 211
0.49437019 -3.7874019 -0.88180816 202
0.48423794 -3.7985334 -0.88405764 225
0.48177361 -3.7792025 -0.87955862 193
0.47163704 -3.7902999 -0.88180816 189
0.46923071 -3.7709615 -0.87730908 193
0.46026403 -3.7916977 -0.88180816 198
0.46026403 -3.7916977 -0.88180816 196
0.45117712 -3.8124137 -0.88630718 214
0.45117712 -3.8124137 -0.88630718 207
0.43750569 -3.7943909 -0.88180816 192
0.43750569 -3.7943909 -0.88180816 214
0.42829466 -3.8150523 -0.88630718 199
0.42829466 -3.8150523 -0.88630718 210
0.41303104 -3.8167348 -0.88630718 204
0.41303104 -3.8167348 -0.88630718 210
0.40436783 -3.807864 -0.88405764 195
0.40539676 -3.8175533 -0.88630718 199
0.39012334 -3.8191442 -0.88630718 204
0.39111352 -3.8288376 -0.88855666 207
0.3853966 -3.8490026 -0.89305568 231
0.38345507 -3.8296123 -0.88855666 202
0.36813357 -3.8311152 -0.88855666 198
0.36906555 -3.8408144 -0.8908062 204
0.35754147 -3.8419042 -0.8908062 211
0.35663858 -3.8322024 -0.88855666 208
0.34601417 -3.8429596 -0.8908062 196
0.34688795 -3.852664 -0.89305568 216
0.33448374 -3.8439803 -0.8908062 214
0.33617306 -3.8633945 -0.89530522 232
0.32376584 -3.854676 -0.89305568 211
0.32621244 -3.8838046 -0.89980423 238
0.30679122 -3.8365149 -0.88855666 199
0.3083446 -3.8559403 -0.89305568 216
0.30063212 -3.8565493 -0.89305568 210
0.30138937 -3.8662634 -0.89530522 219
0.28520355 -3.8577209 -0.89305568 204
0.28520355 -3.8577209 -0.89305568 201
0.27888545 -3.8777208 -0.8975547 219
0.27748755 -3.8582835 -0.89305568 213
0.26337239 -3.8788054 -0.8975547 217
0.2627123 -3.8690839 -0.89530522 205
0.25689554 -3.8987696 -0.90205371 228
0.25561425 -3.8793242 -0.8975547 205
0.23949322 -3.8705907 -0.89530522 202
0.24009496 -3.8803158 -0.8975547 219
0.23233385 -3.8807881 -0.8975547 208
0.23175156 -3.8710618 -0.89530522 199
