# .PCD v0.7 - Point Cloud Data file format
VERSION 0.7
FIELDS x y z intensity
SIZE 4 4 4 4
TYPE F F F F
COUNT 1 1 1 1
WIDTH 1385
HEIGHT 1
VIEWPOINT 0 0 0 1 0 0 0
POINTS 1385
DATA ascii
-0.33219817 2.6354418 -0.71175236 62
-0.33099017 2.6258583 -0.7091642 55
-0.32193187 2.6172523 -0.70657599 47
-0.32429036 2.6364264 -0.71175236 48
-0.31407869 2.6182065 -0.70657599 52
-0.31407869 2.6182065 -0.70657599 43
-0.30734435 2.6287308 -0.7091642 43
-0.30734435 2.6287308 -0.7091642 44
-0.2994568 2.6296411 -0.7091642 51
-0.29836389 2.6200438 -0.70657599 40
-0.29050243 2.6209271 -0.70657599 44
-0.29050243 2.6209271 -0.70657599 46
-0.28104213 2.6316729 -0.7091642 46
-0.28104213 2.6316729 -0.7091642 47
-0.27214897 2.6228964 -0.70657599 48
-0.27414274 2.6421118 -0.71175236 52
-0.26427907 2.6237011 -0.70657599 47
-0.26427907 2.6237011 -0.70657599 49
-0.25546756 2.6148686 -0.70398778 45
-0.25640678 2.6244819 -0.70657599 50
-0.24853219 2.6252394 -0.70657599 49
-0.24853219 2.6252394 -0.70657599 53
-0.23977385 2.6163542 -0.70398778 50
-0.24065536 2.6259732 -0.70657599 45
-0.23192371 2.6170619 -0.70398778 55
-0.23192371 2.6170619 -0.70398778 57
-0.2240715 2.6177459 -0.70398778 51
-0.2248953 2.6273699 -0.70657599 48
-0.21701218 2.6280327 -0.70657599 55
-0.21701218 2.6280327 -0.70657599 49
-0.20649834 2.6288798 -0.70657599 59
-0.20649834 2.6288798 -0.70657599 56
-0.20124017 2.6292875 -0.70657599 55
-0.20197731 2.6389186 -0.7091642 62
-0.19072144 2.6300714 -0.70657599 57
-0.19072144 2.6300714 -0.70657599 57
-0.1841698 2.6499038 -0.71175236 56
-0.1841698 2.6499038 -0.71175236 50
-0.17686006 2.6600823 -0.71434057 43
-0.16949092 2.6702409 -0.71692878 42
-0.16887903 2.6606009 -0.71434057 37
-0.16264535 2.6900206 -0.72210515 44
-0.16147944 2.6707373 -0.71692878 34
-0.15133962 2.6810057 -0.71951693 35
-0.151884 2.6906495 -0.72210515 32
-0.14650241 2.690948 -0.72210515 32
-0.14755261 2.710238 -0.72728151 26
-0.13719702 2.7204535 -0.72986972 23
-0.13768353 2.7301004 -0.73245788 32
-0.13222305 2.7303703 -0.73245788 31
-0.13269028 2.7400184 -0.73504609 19
-0.12258641 2.7598267 -0.74022245 11
-0.12387229 2.7887759 -0.74798703 12
-0.11630476 2.8084369 -0.7531634 15
-0.11630476 2.8084369 -0.7531634 14
-0.10824966 2.8184254 -0.75575161 16
-0.10862038 2.8280776 -0.75833982 13
-0.10150271 2.8670034 -0.76869255 12
-0.10184447 2.8766568 -0.77128077 11
-0.094152451 2.9059119 -0.77904534 9
-0.094778046 2.9252203 -0.78422171 8
-0.08307644 2.925576 -0.78422171 7
-0.084995694 2.9931636 -0.80233902 8
-0.17840788 6.7591267 -1.8117334 19
-0.15158625 6.769443 -1.8143215 34
-0.15158625 6.769443 -1.8143215 44
-0.13785015 6.7600756 -1.8117334 49
-0.13804707 6.7697325 -1.8143215 51
-0.11080881 6.7605729 -1.8117334 41
-0.11096711 6.7702308 -1.8143215 43
-0.090526626 6.7608747 -1.8117334 39
-0.090526626 6.7608747 -1.8117334 34
-0.070343979 6.7707748 -1.8143215 36
-0.070143282 6.7514572 -1.8091451 36
-0.049959995 6.7612963 -1.8117334 37
-0.049959995 6.7612963 -1.8117334 37
-0.029718306 6.7710748 -1.8143215 38
-0.029591123 6.7420974 -1.8065569 33
-0.0026338405 6.7711396 -1.8143215 32
-0.0026300834 6.7614803 -1.8117334 35
0.010908435 6.771131 -1.8143215 37
0.010892874 6.7614722 -1.8117334 35
0.038046997 6.7806926 -1.8169097 54
0.037938602 6.7613745 -1.8117334 75
0.058222525 6.76123 -1.8117334 89
0.058222525 6.76123 -1.8117334 89
0.078393772 6.7513666 -1.8091451 81
0.078505918 6.761025 -1.8117334 84
0.098788612 6.7607589 -1.8117334 93
0.098788612 6.7607589 -1.8117334 97
0.11941062 6.779748 -1.8169097 101
0.11924051 6.7700901 -1.8143215 103
0.13935114 6.7600446 -1.8117334 95
0.13935114 6.7600446 -1.8117334 96
0.15963063 6.7595963 -1.8117334 93
0.15985867 6.7692528 -1.8143215 91
0.18016568 6.7687426 -1.8143215 93
0.17990866 6.7590871 -1.8117334 92
0.20723914 6.7679677 -1.8143215 95
0.20723914 6.7679677 -1.8143215 92
0.22754207 6.7673159 -1.8143215 92
0.22689287 6.7480083 -1.8091451 96
0.24713585 6.7472973 -1.8091451 92
0.24748941 6.7569499 -1.8117334 95
0.2673766 6.7465253 -1.8091451 93
0.2673766 6.7465253 -1.8091451 97
0.28761494 6.7456927 -1.8091451 94
0.28720349 6.7360425 -1.8065569 94
0.30741027 6.7351503 -1.8065569 99
0.30741027 6.7351503 -1.8065569 99
0.32714495 6.7245502 -1.8039688 96
0.32761431 6.7341981 -1.8065569 99
0.35454842 6.7328334 -1.8065569 96
0.35454842 6.7328334 -1.8065569 93
0.36801338 6.732111 -1.8065569 95
0.36748612 6.722466 -1.8039688 98
0.39437297 6.7209425 -1.8039688 94
0.3949388 6.7305851 -1.8065569 98
0.40722898 6.7104988 -1.8013805 99
0.40839916 6.7297816 -1.8065569 97
0.43531495 6.7280941 -1.8065569 89
0.43531495 6.7280941 -1.8065569 93
0.45484468 6.7171211 -1.8039688 92
0.45484468 6.7171211 -1.8039688 91
0.47499394 6.7157259 -1.8039688 95
0.47431248 6.7060909 -1.8013805 92
0.50113297 6.7041402 -1.8013805 91
0.50185299 6.7137723 -1.8039688 96
0.51527953 6.7127552 -1.8039688 93
0.51454026 6.7031245 -1.8013805 94
0.54057074 6.6913848 -1.7987924 84
0.54134858 6.7010126 -1.8013805 86
0.55554652 6.7095428 -1.8039688 87
0.55474949 6.6999164 -1.8013805 89
0.5807091 6.6880207 -1.7987924 87
0.5807091 6.6880207 -1.7987924 89
0.59990609 6.6766281 -1.7962042 92
0.60077053 6.6862488 -1.7987924 90
0.62082654 6.6844163 -1.7987924 92
0.62082654 6.6844163 -1.7987924 96
0.64179909 6.6921387 -1.8013805 90
0.64087695 6.6825237 -1.7987924 91
0.66092157 6.6805711 -1.7987924 92
0.65997064 6.6709585 -1.7962042 93
0.67998052 6.6689487 -1.7962042 92
0.6809603 6.6785583 -1.7987924 90
0.69998425 6.6668787 -1.7962042 90
0.69897562 6.6572723 -1.7936159 96
0.72664613 6.6640253 -1.7962042 97
0.72769314 6.6736279 -1.7987924 92
0.73784024 6.6433582 -1.7910278 92
0.73997271 6.662559 -1.7962042 98
0.76661694 6.6595459 -1.7962042 93
0.76440769 6.6403542 -1.7910278 88
0.78545868 6.6476235 -1.7936159 96
0.78319186 6.6284385 -1.7884396 96
0.80539799 6.645237 -1.7936159 89
0.80423582 6.6356478 -1.7910278 94
0.82413912 6.6332054 -1.7910278 95
0.82294816 6.62362 -1.7884396 93
0.84403497 6.630703 -1.7910278 93
0.84403497 6.630703 -1.7910278 90
0.86267483 6.6185632 -1.7884396 89
0.86267483 6.6185632 -1.7884396 86
0.88252658 6.6159453 -1.7884396 87
0.88252658 6.6159453 -1.7884396 87
0.90766776 6.6027927 -1.7858514 86
0.90766776 6.6027927 -1.7858514 92
0.92747205 6.60004 -1.7858514 96
0.9288162 6.6096053 -1.7884396 100
0.94864082 6.6067891 -1.7884396 94
0.94726795 6.5972281 -1.7858514 93
0.96565384 6.5847998 -1.7832632 93
0.96705538 6.5943565 -1.7858514 92
0.98540384 6.5818729 -1.7832632 89
0.98540384 6.5818729 -1.7832632 90
1.005145 6.578887 -1.7832632 91
1.005145 6.578887 -1.7832632 92
1.0233896 6.566298 -1.7806751 93
1.0248771 6.5758419 -1.7832632 94
1.0446 6.5727377 -1.7832632 91
1.0430839 6.5631986 -1.7806751 87
1.0708826 6.5685067 -1.7832632 84
1.0677741 6.5494399 -1.7780868 90
1.0808707 6.5472913 -1.7780868 94
1.0824441 6.5568218 -1.7806751 90
1.1086626 6.5524397 -1.7806751 89
1.1086626 6.5524397 -1.7806751 84
1.128315 6.5490842 -1.7806751 82
1.1266749 6.5395651 -1.7780868 89
1.1462885 6.5361557 -1.7780868 93
1.1446199 6.5266414 -1.7754986 89
1.1658918 6.5326872 -1.7780868 91
1.1658918 6.5326872 -1.7780868 93
1.183759 6.5196562 -1.7754986 89
1.183759 6.5196562 -1.7754986 92
1.209828 6.5148692 -1.7754986 92
1.209828 6.5148692 -1.7754986 93
1.2228553 6.5124364 -1.7754986 92
1.2210728 6.502943 -1.7729105 88
1.2507159 6.5169792 -1.7780868 93
1.2488953 6.507493 -1.7754986 93
1.2619078 6.504982 -1.7754986 95
1.2619078 6.504982 -1.7754986 91
1.2879175 6.4998827 -1.7754986 93
1.2860401 6.4904075 -1.7729105 92
1.2990184 6.4878225 -1.7729105 92
1.3009148 6.4972935 -1.7754986 93
1.3249592 6.4825745 -1.7729105 93
1.3249592 6.4825745 -1.7729105 96
1.3444009 6.4785705 -1.7729105 90
1.3404757 6.4596548 -1.7677341 96
1.3618395 6.4650564 -1.7703223 94
1.3618395 6.4650564 -1.7703223 93
1.3856601 6.4501133 -1.7677341 89
1.3876888 6.4595571 -1.7703223 79
1.4006051 6.456769 -1.7703223 89
1.4006051 6.456769 -1.7703223 93
1.4243355 6.4416833 -1.7677341 92
1.4243355 6.4416833 -1.7677341 94
1.437216 6.4388218 -1.7677341 88
1.4393203 6.4482489 -1.7703223 86
1.4629598 6.4330215 -1.7677341 85
1.4608178 6.4236026 -1.7651459 90
1.4758228 6.4300828 -1.7677341 94
1.4779836 6.439497 -1.7703223 91
1.5037297 6.4335337 -1.7703223 90
1.5015314 6.4241281 -1.7677341 85
1.5207969 6.4195943 -1.7677341 92
1.5185703 6.4101954 -1.7651459 93
1.5400488 6.4150033 -1.7677341 92
1.5400488 6.4150033 -1.7677341 89
1.5592868 6.4103541 -1.7677341 86
1.5570039 6.4009686 -1.7651459 88
1.5761998 6.3962688 -1.7651459 89
1.5761998 6.3962688 -1.7651459 85
1.5994235 6.3805432 -1.7625577 85
1.6017722 6.3899126 -1.7651459 91
1.6121814 6.3773317 -1.7625577 90
1.6121814 6.3773317 -1.7625577 89
1.6424874 6.3895426 -1.7677341 87
1.6376778 6.370832 -1.7625577 89
1.6552632 6.3862448 -1.7677341 87
1.6504161 6.3675442 -1.7625577 87
1.6783339 6.3702321 -1.7651459 86
1.675873 6.3608913 -1.7625577 83
1.6949481 6.3558354 -1.7625577 87
1.6924592 6.3465023 -1.7599695 82
1.7114911 6.3413963 -1.7599695 83
1.714008 6.3507218 -1.7625577 83
1.7305075 6.3362331 -1.7599695 66
1.7330524 6.345551 -1.7625577 68
1.7520813 6.3403234 -1.7625577 65
1.7495084 6.3310132 -1.7599695 69
1.7748184 6.3239646 -1.7599695 69
1.7748184 6.3239646 -1.7599695 79
1.7964202 6.3279037 -1.7625577 82
1.7911444 6.3093195 -1.7573813 78
1.8100642 6.3039179 -1.7573813 75
1.8127301 6.3132019 -1.7599695 79
1.8289678 6.2984591 -1.7573813 85
1.8316615 6.3077354 -1.7599695 88
1.8505764 6.3022118 -1.7599695 89
1.847855 6.292944 -1.7573813 86
1.8694746 6.2966318 -1.7599695 91
1.8667254 6.2873721 -1.7573813 95
1.8855791 6.2817435 -1.7573813 87
1.8855791 6.2817435 -1.7573813 84
1.9044158 6.2760587 -1.7573813 82
1.9072206 6.2853017 -1.7599695 90
1.926663 6.2591591 -1.7547932 83
1.9295048 6.2683907 -1.7573813 73
1.9420377 6.2645192 -1.7573813 70
1.9420377 6.2645192 -1.7573813 82
1.9670801 6.256701 -1.7573813 84
1.9641831 6.2474861 -1.7547932 86
1.9829167 6.2415657 -1.7547932 87
1.9829167 6.2415657 -1.7547932 87
1.9986802 6.2263918 -1.7522049 86
1.9986802 6.2263918 -1.7522049 85
2.0173504 6.2203679 -1.7522049 85
2.0233099 6.2387443 -1.7573813 93
2.0360024 6.2142878 -1.7522049 94
2.0390098 6.2234669 -1.7547932 90
2.054636 6.2081518 -1.7522049 87
2.0576708 6.2173219 -1.7547932 85
2.0701888 6.1927991 -1.7496167 82
2.0732512 6.2019601 -1.7522049 83
2.0980425 6.1936173 -1.7522049 88
2.0980425 6.1936173 -1.7522049 92
2.1104255 6.1894088 -1.7522049 84
2.1104255 6.1894088 -1.7522049 88
2.1320124 6.1717877 -1.7496167 86
2.1320124 6.1717877 -1.7496167 86
2.1475236 6.1766348 -1.7522049 87
2.1506958 6.1857586 -1.7547932 90
2.1690044 6.1588845 -1.7496167 86
2.1722131 6.1679955 -1.7522049 93
2.1842353 6.143249 -1.7470286 91
2.1874712 6.1523499 -1.7496167 89
2.2059183 6.1457601 -1.7496167 79
2.2059183 6.1457601 -1.7496167 72
2.2271843 6.127809 -1.7470286 78
2.2337832 6.1459656 -1.7522049 83
2.242753 6.1324139 -1.7496167 83
2.242753 6.1324139 -1.7496167 87
2.2639108 6.1143355 -1.7470286 85
2.2639108 6.1143355 -1.7470286 85
2.2795069 6.1188469 -1.7496167 88
2.2795069 6.1188469 -1.7496167 79
2.3039641 6.1096802 -1.7496167 83
2.3005557 6.1006422 -1.7470286 77
2.3127525 6.0960288 -1.7470286 74
2.3058999 6.0779667 -1.7418522 77
2.3336556 6.0777116 -1.7444403 80
2.3336556 6.0777116 -1.7444403 80
2.3553677 6.0796905 -1.7470286 76
2.3518782 6.0706835 -1.7444403 80
2.3735962 6.072597 -1.7470286 79
2.3700798 6.0636005 -1.7444403 76
2.394315 6.0540714 -1.7444403 76
2.394315 6.0540714 -1.7444403 73
2.402848 6.0402956 -1.7418522 66
2.4064183 6.0492711 -1.7444403 63
2.42699 6.0306358 -1.7418522 77
2.4305961 6.039597 -1.7444403 82
2.4354222 6.0168166 -1.739264 84
2.4426706 6.0347238 -1.7444403 87
2.4631298 6.0159655 -1.7418522 82
2.45947 6.0070267 -1.739264 79
2.4751568 6.0110273 -1.7418522 85
2.4751568 6.0110273 -1.7418522 88
2.4954677 5.9921618 -1.739264 86
2.4954677 5.9921618 -1.739264 84
2.5134327 5.9846482 -1.739264 83
2.5134327 5.9846482 -1.739264 81
2.5313754 5.9770813 -1.739264 91
2.5313754 5.9770813 -1.739264 93
2.5455017 5.960577 -1.7366757 92
2.5492952 5.96946 -1.739264 88
2.5671921 5.9617853 -1.739264 74
2.5710123 5.9706573 -1.7418522 78
2.5910187 5.9514689 -1.739264 73
2.587163 5.9426126 -1.7366757 65
2.6029165 5.9462752 -1.739264 63
2.6029165 5.9462752 -1.739264 69
2.6188631 5.9181499 -1.7340876 73
2.622772 5.9269829 -1.7366757 76
2.6366057 5.9102664 -1.7340876 82
2.6405411 5.9190879 -1.7366757 78
2.6582863 5.9111395 -1.7366757 79
2.6543248 5.9023299 -1.7340876 67
2.6720197 5.8943405 -1.7340876 76
2.6720197 5.8943405 -1.7340876 74
2.6937051 5.8950834 -1.7366757 71
2.6937051 5.8950834 -1.7366757 76
2.7113783 5.8869758 -1.7366757 88
2.7073374 5.8782024 -1.7340876 83
2.7249599 5.8700538 -1.7340876 78
2.7208927 5.8612928 -1.7314994 76
2.7384644 5.8531036 -1.7314994 75
2.7466512 5.8706017 -1.7366757 83
2.7618549 5.842103 -1.7314994 85
2.7618549 5.842103 -1.7314994 85
2.7793686 5.8337913 -1.7314994 81
2.7793686 5.8337913 -1.7314994 87
2.7968576 5.8254271 -1.7314994 87
2.801038 5.8341346 -1.7340876 85
2.814321 5.8170099 -1.7314994 78
2.814321 5.8170099 -1.7314994 72
2.8317595 5.8085408 -1.7314994 69
2.8275266 5.7998586 -1.7289113 58
2.8491724 5.8000197 -1.7314994 62
2.8491724 5.8000197 -1.7314994 82
2.8622746 5.7827892 -1.7289113 73
2.8665595 5.7914457 -1.7314994 68
2.8839209 5.7828202 -1.7314994 73
2.8839209 5.7828202 -1.7314994 45
2.8969197 5.7655115 -1.7289113 43
2.8925831 5.7568803 -1.726323 53
2.9098406 5.7481766 -1.726323 46
2.9098406 5.7481766 -1.726323 42
2.937207 5.7450919 -1.7289113 37
2.937207 5.7450919 -1.7289113 33
2.9544291 5.7362542 -1.7289113 25
2.9588518 5.7448416 -1.7314994 46
2.9627273 5.7102175 -1.7237349 70
2.967176 5.7187915 -1.726323 69
2.9887931 5.7184248 -1.7289113 67
2.984319 5.7098641 -1.726323 69
3.001435 5.7008858 -1.726323 51
2.9969351 5.6923385 -1.7237349 37
3.0185242 5.6918554 -1.726323 25
3.0094731 5.6747885 -1.7211467 25
3.0310349 5.6742544 -1.7237349 25
3.0355861 5.6827745 -1.726323 31
3.0480442 5.6651359 -1.7237349 47
3.0434675 5.6566296 -1.7211467 37
3.0706801 5.6528983 -1.7237349 33
3.0614591 5.6359229 -1.7185584 40
3.08198 5.6467457 -1.7237349 39
3.0773523 5.638267 -1.7211467 48
3.1045423 5.6343727 -1.7237349 69
3.1045423 5.6343727 -1.7237349 69
3.1167445 5.6165876 -1.7211467 63
3.1167445 5.6165876 -1.7211467 61
3.1288681 5.5987802 -1.7185584 51
3.1288681 5.5987802 -1.7185584 46
3.1456501 5.5893688 -1.7185584 31
3.1503878 5.5977864 -1.7211467 32
3.1624041 5.5799065 -1.7185584 35
3.1624041 5.5799065 -1.7185584 29
3.1799023 5.5588279 -1.7159703 41
3.1894946 5.5755968 -1.7211467 54
3.1958265 5.5608315 -1.7185584 44
3.2006395 5.5692067 -1.7211467 35
3.2180443 5.5480042 -1.7185584 42
3.2180443 5.5480042 -1.7185584 35
3.2291338 5.5415568 -1.7185584 35
3.2339969 5.5499024 -1.7211467 53
3.2512741 5.5285959 -1.7185584 60
3.2512741 5.5285959 -1.7185584 61
3.2672379 5.5303988 -1.7211467 76
3.2574117 5.5137658 -1.7159703 61
3.2843869 5.5089889 -1.7185584 63
3.2794406 5.5006924 -1.7159703 63
3.2909567 5.4825473 -1.7133821 63
3.300899 5.4991112 -1.7185584 70
3.3123856 5.480917 -1.7159703 70
3.3173816 5.4891834 -1.7185584 61
3.3393116 5.4758701 -1.7185584 62
3.3342826 5.4676232 -1.7159703 60
3.3452113 5.4609437 -1.7159703 55
3.3502567 5.4691806 -1.7185584 47
3.3670282 5.4475193 -1.7159703 47
3.3619497 5.4393029 -1.7133821 50
3.3728216 5.4325681 -1.7133821 62
3.3779163 5.4407744 -1.7159703 66
3.3996525 5.4272194 -1.7159703 56
3.3945248 5.4190335 -1.7133821 55
3.4053559 5.4122334 -1.7133821 55
3.3950679 5.3958826 -1.7082057 56
3.4269776 5.3985691 -1.7133821 58
3.4321544 5.406724 -1.7159703 68
3.4431579 5.3882637 -1.7133821 67
3.4379568 5.3801241 -1.7107939 56
3.4645329 5.3860335 -1.7159703 44
3.4540818 5.3697863 -1.7107939 41
3.4806752 5.3756161 -1.7159703 44
3.4754252 5.3675079 -1.7133821 36
3.4915123 5.3570576 -1.7133821 39
3.486238 5.3489652 -1.7107939 45
3.5129125 5.3430486 -1.7133821 44
3.507606 5.3349776 -1.7107939 49
3.5182688 5.3279514 -1.7107939 62
3.5235915 5.3360119 -1.7133821 67
3.5395525 5.3138361 -1.7107939 73
3.5449073 5.3218751 -1.7133821 60
3.5608571 5.3112164 -1.7133821 55
3.5554781 5.3031936 -1.7107939 45
3.5713716 5.2925034 -1.7107939 37
3.5659685 5.2844963 -1.7082057 31
3.5872331 5.281765 -1.7107939 44
3.5763791 5.2657843 -1.7056175 39
3.5976112 5.2630057 -1.7082057 29
3.6030622 5.2709799 -1.7107939 33
3.613384 5.2521892 -1.7082057 40
3.613384 5.2521892 -1.7082057 48
3.6291244 5.2413254 -1.7082057 56
3.6291244 5.2413254 -1.7082057 59
3.655591 5.2346864 -1.7107939 62
3.6666517 5.250525 -1.7159703 74
3.6605067 5.2194562 -1.7082057 67
3.6605067 5.2194562 -1.7082057 71
3.6813552 5.2047725 -1.7082057 58
3.6757774 5.1968865 -1.7056175 51
3.6969531 5.1937051 -1.7082057 43
3.6969531 5.1937051 -1.7082057 43
3.7012672 5.1668859 -1.7030293 39
3.7125175 5.182591 -1.7082057 40
3.7224 5.1635947 -1.7056175 43
3.7224 5.1635947 -1.7056175 51
3.743546 5.1602225 -1.7082057 56
3.749218 5.1680412 -1.7107939 45
3.7590098 5.1489687 -1.7082057 36
3.7476187 5.1333656 -1.7030293 42
3.7744398 5.1376686 -1.7082057 44
3.7801585 5.145453 -1.7107939 33
3.7840936 5.1185551 -1.7056175 23
3.7840936 5.1185551 -1.7056175 19
3.8045373 5.1033778 -1.7056175 20
3.8103106 5.1111217 -1.7082057 27
3.814034 5.0842142 -1.7030293 38
3.8082376 5.0764875 -1.7004411 44
3.8234499 5.0650401 -1.7004411 43
3.835089 5.0804586 -1.7056175 57
3.8444705 5.0612388 -1.7030293 71
3.8503132 5.0689306 -1.7056175 74
3.8655026 5.0573568 -1.7056175 67
3.8596368 5.0496826 -1.7030293 40
3.8629911 5.0227675 -1.697853 36
3.8688798 5.0304241 -1.7004411 41
3.8839536 5.018795 -1.7004411 38
3.878042 5.0111561 -1.697853 38
3.8980556 4.995604 -1.697853 35
3.8980556 4.995604 -1.697853 33
3.9080389 4.9877977 -1.697853 34
3.9080389 4.9877977 -1.697853 32
3.9279587 4.972126 -1.697853 30
3.9279587 4.972126 -1.697853 29
3.9258895 4.9491248 -1.6926765 28
3.9378953 4.9642601 -1.697853 29
3.9577208 4.9484687 -1.697853 32
3.9516876 4.9409251 -1.6952647 30
3.9664927 4.9290481 -1.6952647 30
3.9786041 4.9440985 -1.7004411 33
3.9751835 4.9096193 -1.6926765 31
3.9751835 4.9096193 -1.6926765 32
4.0020962 4.9126492 -1.697853 27
3.9959953 4.9051604 -1.6952647 30
4.0106926 4.8931503 -1.6952647 28
4.0045695 4.8856802 -1.6926765 30
4.0253539 4.8810964 -1.6952647 39
4.0253539 4.8810964 -1.6952647 35
4.0338116 4.8615646 -1.6926765 34
4.0338116 4.8615646 -1.6926765 34
4.0470276 4.8379817 -1.6900884 39
4.0470276 4.8379817 -1.6900884 37
4.0629082 4.8372746 -1.6926765 35
4.0629082 4.8372746 -1.6926765 39
4.0634985 4.7988696 -1.684912 40
4.0697408 4.806241 -1.6875001 36
4.0966692 4.8087158 -1.6926765 38
4.090405 4.801363 -1.6900884 41
4.1047907 4.7890701 -1.6900884 38
4.1047907 4.7890701 -1.6900884 37
4.1128316 4.7694192 -1.6875001 39
4.1065235 4.7621045 -1.684912 36
4.127121 4.7570596 -1.6875001 40
4.133451 4.7643557 -1.6900884 42
4.1413736 4.7446566 -1.6875001 44
4.1477256 4.7519336 -1.6900884 39
4.1492152 4.7249532 -1.684912 41
4.1619625 4.7394691 -1.6900884 40
4.1808872 4.7227836 -1.6900884 42
4.1616793 4.701086 -1.6823238 49
4.1839075 4.7071924 -1.6875001 41
4.1774902 4.6999731 -1.684912 38
4.2027025 4.6904192 -1.6875001 37
4.2027025 4.6904192 -1.6875001 36
4.2120752 4.6820045 -1.6875001 37
4.1991544 4.6676426 -1.6823238 36
4.2177916 4.6508088 -1.6823238 34
4.2307692 4.6651187 -1.6875001 34
4.2317247 4.6381345 -1.6823238 34
4.238235 4.6452699 -1.684912 42
4.2456203 4.6254187 -1.6823238 37
4.2390885 4.6183023 -1.6797357 31
4.2640877 4.6083989 -1.6823238 32
4.2575278 4.6013093 -1.6797357 32
4.2601476 4.5857081 -1.6771474 32
4.2732964 4.5998616 -1.6823238 36
4.2916613 4.5827317 -1.6823238 33
4.2784562 4.5686312 -1.6771474 31
4.2942014 4.567102 -1.6797357 31
4.2875848 4.5600648 -1.6771474 37
4.3124356 4.5498886 -1.6797357 41
4.2991462 4.5358677 -1.6745592 34
4.3215265 4.541255 -1.6797357 35
4.3215265 4.541255 -1.6797357 34
4.3329706 4.5169616 -1.6771474 36
4.3329706 4.5169616 -1.6771474 30
4.3532095 4.5108929 -1.6797357 33
4.3397942 4.4969921 -1.6745592 37
4.3532658 4.4839525 -1.6745592 34
4.3599939 4.4908829 -1.6771474 34
4.3666978 4.4708724 -1.6745592 32
4.3666978 4.4708724 -1.6745592 34
4.3868608 4.464642 -1.6771474 36
4.3733211 4.4508624 -1.6719711 37
4.3978868 4.4401965 -1.6745592 39
4.4046841 4.4470592 -1.6771474 39
4.4067583 4.4313917 -1.6745592 38
4.4067583 4.4313917 -1.6745592 34
4.4244485 4.4137292 -1.6745592 34
4.4244485 4.4137292 -1.6745592 38
4.4264154 4.3980632 -1.6719711 57
4.4401193 4.4116797 -1.6771474 66
4.4439721 4.3803225 -1.6719711 56
4.4439721 4.3803225 -1.6719711 53
4.452724 4.3714256 -1.6719711 46
4.452724 4.3714256 -1.6719711 40
4.4701738 4.35358 -1.6719711 35
4.4701738 4.35358 -1.6719711 38
4.4832144 4.3401499 -1.6719711 38
4.4762745 4.3334312 -1.6693828 35
4.4892545 4.319983 -1.6693828 39
4.4962149 4.3266807 -1.6719711 36
4.5021944 4.3064961 -1.6693828 35
4.5021944 4.3064961 -1.6693828 37
4.5150933 4.2929702 -1.6693828 35
4.5220938 4.2996259 -1.6719711 36
4.5252028 4.2682476 -1.6667947 36
4.5392561 4.2815032 -1.6719711 33
4.5407701 4.2658024 -1.6693828 33
4.5407701 4.2658024 -1.6693828 33
4.543664 4.2344341 -1.6642065 28
4.557797 4.2476053 -1.6693828 34
4.5634332 4.2273483 -1.6667947 34
4.570519 4.2339125 -1.6693828 31
4.5832 4.2201819 -1.6693828 31
4.5689888 4.2070961 -1.6642065 32
4.5744643 4.1868486 -1.6616182 36
4.59584 4.2064137 -1.6693828 37
4.5941491 4.1796069 -1.6642065 37
4.5941491 4.1796069 -1.6642065 40
4.6138315 4.1722841 -1.6667947 40
4.606667 4.1658053 -1.6642065 36
4.6119599 4.1455097 -1.6616182 33
4.6047764 4.1390524 -1.6590301 37
4.6357145 4.1334572 -1.6642065 41
4.6285052 4.1270285 -1.6616182 33
4.6408653 4.1131248 -1.6616182 44
4.6480942 4.1195312 -1.6642065 49
4.6531839 4.0991836 -1.6616182 45
4.645936 4.0927987 -1.6590301 40
4.6509261 4.0724792 -1.6564419 35
4.6436591 4.0661159 -1.6538537 32
4.6776948 4.0711908 -1.6616182 36
4.6631227 4.0585079 -1.6564419 40
4.6825824 4.0508199 -1.6590301 38
4.6752772 4.0445004 -1.6564419 35
4.6947136 4.0367541 -1.6590301 36
4.6947136 4.0367541 -1.6590301 41
4.7068028 4.0226517 -1.6590301 41
4.6921172 4.0101004 -1.6538537 30
4.7081199 3.9912999 -1.6538537 32
4.7228556 4.0037923 -1.6590301 37
4.7160931 3.9818757 -1.6538537 40
4.7234735 3.9881072 -1.6564419 44
4.7467933 3.9753833 -1.6590301 37
4.739388 3.9691815 -1.6564419 29
4.7438502 3.9487658 -1.6538537 28
4.7438502 3.9487658 -1.6538537 28
4.7631178 3.9406738 -1.6564419 30
4.7407904 3.9222019 -1.6486773 33
4.7599964 3.9140968 -1.6512655 33
4.7599964 3.9140968 -1.6512655 32
4.7791967 3.9059119 -1.6538537 29
4.7717175 3.8997993 -1.6512655 32
4.7833953 3.8854666 -1.6512655 28
4.7908931 3.8915567 -1.6538537 31
4.7950301 3.871099 -1.6512655 36
4.7875147 3.8650315 -1.6486773 32
4.8104763 3.8518879 -1.6512655 32
4.7953963 3.839813 -1.6460891 35
4.8181705 3.8422592 -1.6512655 34
4.8181705 3.8422592 -1.6512655 35
4.8259249 3.8169639 -1.6486773 36
4.8259249 3.8169639 -1.6486773 41
4.833549 3.8073044 -1.6486773 43
4.8411369 3.8132813 -1.6512655 38
4.8487396 3.7879398 -1.6486773 40
4.8524518 3.7674527 -1.6460891 37
4.8600817 3.7733765 -1.6486773 40
4.8713799 3.7587793 -1.6486773 39
4.8637323 3.7528784 -1.6460891 33
4.874969 3.7382705 -1.6460891 37
4.8826342 3.7441483 -1.6486773 38
4.8938446 3.7294836 -1.6486773 45
4.8784795 3.7177739 -1.6435009 40
4.9087234 3.7098784 -1.6486773 37
4.9010172 3.7040544 -1.6460891 41
4.9161334 3.7000535 -1.6486773 39
4.9006982 3.6884363 -1.6435009 35
4.9154124 3.6688042 -1.6435009 36
4.9076719 3.6630266 -1.6409128 37
4.9304929 3.6647282 -1.6460891 37
4.914988 3.6532037 -1.6409128 36
4.9451122 3.6449769 -1.6460891 38
4.9373369 3.6392457 -1.6435009 40
4.9482322 3.6244173 -1.6435009 31
4.9404397 3.6187096 -1.6409128 34
4.9668927 3.6152408 -1.6460891 40
4.9512739 3.6038721 -1.6409128 37
4.9620628 3.5890021 -1.6409128 33
4.9620628 3.5890021 -1.6409128 33
4.9649639 3.5684624 -1.6383245 33
4.9728079 3.5740998 -1.6409128 32
4.9949303 3.5597858 -1.6435009 40
4.9870644 3.5541799 -1.6409128 37
4.9941626 3.5441988 -1.6409128 36
4.9862852 3.5386086 -1.6383245 39
5.0004001 3.518635 -1.6383245 39
4.9925003 3.5130765 -1.6357363 37
5.0074272 3.5086274 -1.6383245 36
5.0074272 3.5086274 -1.6383245 41
5.0214214 3.4885695 -1.6383245 42
5.0214214 3.4885695 -1.6383245 40
5.0283885 3.4785197 -1.6383245 46
5.0283885 3.4785197 -1.6383245 44
5.0422626 3.4583786 -1.6383245 53
5.034297 3.452915 -1.6357363 47
5.0526152 3.4432361 -1.6383245 40
5.0605969 3.4486756 -1.6409128 42
5.0549235 3.4226472 -1.6357363 36
5.0549235 3.4226472 -1.6357363 42
5.0685735 3.4024003 -1.6357363 34
5.0685735 3.4024003 -1.6357363 37
5.0833988 3.3976238 -1.6383245 42
5.0753684 3.3922563 -1.6357363 46
5.0888968 3.3719277 -1.6357363 43
5.0888968 3.3719277 -1.6357363 40
5.079505 3.3511047 -1.63056 35
5.0875678 3.3564239 -1.6331482 44
5.0928688 3.33076 -1.63056 43
5.1009526 3.3360469 -1.6331482 40
5.1157088 3.331109 -1.6357363 42
5.1076145 3.3258383 -1.6331482 40
5.1127615 3.300143 -1.63056 38
5.1208768 3.3053813 -1.6331482 39
5.1307702 3.2900038 -1.6331482 39
5.1389012 3.2952178 -1.6357363 41
5.1406169 3.2745967 -1.6331482 39
5.1243234 3.2642176 -1.6279718 34
5.1422553 3.2539952 -1.63056 42
5.1422553 3.2539952 -1.63056 37
5.1683497 3.2488348 -1.6357363 49
5.1438165 3.2334132 -1.6279718 51
5.1567087 3.2128122 -1.6279718 46
5.164907 3.2179198 -1.63056 42
5.1631241 3.2024922 -1.6279718 45
5.1713328 3.2075837 -1.63056 45
5.1841216 3.1868727 -1.63056 43
5.1758928 3.1818142 -1.6279718 42
5.1936588 3.1713061 -1.63056 41
5.1771712 3.1612384 -1.6253836 40
5.2031493 3.1557107 -1.63056 41
5.2031493 3.1557107 -1.63056 42
5.1960454 3.1301186 -1.6253836 41
5.204319 3.135103 -1.6279718 41
5.2054119 3.1145165 -1.6253836 47
5.1971231 3.1095569 -1.6227955 41
5.2313395 3.1087554 -1.63056 51
5.2064285 3.0939517 -1.6227955 40
5.2323241 3.0881376 -1.6279718 45
5.2406425 3.0930474 -1.63056 44
5.2415648 3.0724268 -1.6279718 47
5.2332315 3.0675423 -1.6253836 47
5.2340627 3.0469692 -1.6227955 50
5.2424107 3.0518289 -1.6253836 48
5.2545762 3.0308347 -1.6253836 52
5.2462087 3.0260086 -1.6227955 54
5.2636447 3.0150573 -1.6253836 60
5.2636447 3.0150573 -1.6253836 65
5.2642703 2.994477 -1.6227955 59
5.2726665 2.999253 -1.6253836 52
5.2816405 2.9834216 -1.6253836 45
5.2648196 2.9739201 -1.6202072 46
5.2821422 2.9628377 -1.6227955 48
5.2905669 2.9675632 -1.6253836 57
5.291007 2.9469781 -1.6227955 47
5.291007 2.9469781 -1.6227955 46
5.3082767 2.9357665 -1.6253836 53
5.2998242 2.9310918 -1.6227955 52
5.3085938 2.915179 -1.6227955 45
5.300127 2.9105296 -1.6202072 41
5.3117266 2.8893058 -1.6202072 44
5.3202119 2.8939214 -1.6227955 46
5.3203707 2.8733578 -1.6202072 41
5.3288698 2.8779478 -1.6227955 46
5.3289666 2.8573837 -1.6202072 49
5.3374796 2.8619483 -1.6227955 45
5.3204622 2.8323061 -1.6150309 38
5.3375149 2.8413839 -1.6202072 42
5.346015 2.8253586 -1.6202072 41
5.346015 2.8253586 -1.6202072 45
5.3459134 2.8048203 -1.617619 43
5.3544669 2.8093081 -1.6202072 52
5.3543038 2.78877 -1.617619 46
5.3543038 2.78877 -1.617619 54
5.3540659 2.7682581 -1.6150309 47
5.3626461 2.7726946 -1.617619 52
5.3709402 2.7565942 -1.617619 45
5.3623466 2.7521837 -1.6150309 42
5.3819237 2.7350883 -1.617619 44
5.3819237 2.7350883 -1.617619 46
5.3787632 2.7199602 -1.6150309 54
5.3787632 2.7199602 -1.6150309 54
5.3982372 2.7027478 -1.617619 50
5.3895998 2.6984234 -1.6150309 51
5.3976707 2.6822424 -1.6150309 50
5.406321 2.6865408 -1.617619 49
5.3970304 2.6617649 -1.6124426 50
5.3970304 2.6617649 -1.6124426 47
5.4049911 2.6455619 -1.6124426 47
5.4049911 2.6455619 -1.6124426 43
5.4215922 2.6335554 -1.6150309 53
5.4129038 2.6293349 -1.6124426 45
5.4233775 2.6076624 -1.6124426 44
5.4320831 2.6118481 -1.6150309 50
5.4198685 2.5926423 -1.6098545 48
5.4285822 2.5968103 -1.6124426 58
5.4389257 2.5750754 -1.6124426 58
5.4301958 2.5709422 -1.6098545 57
5.4440651 2.5641923 -1.6124426 56
5.4353266 2.5600765 -1.6098545 48
5.4542785 2.5423956 -1.6124426 47
5.4542785 2.5423956 -1.6124426 44
5.4593525 2.531482 -1.6124426 44
5.4505892 2.5274186 -1.6098545 41
5.4694347 2.5096245 -1.6124426 50
5.4606552 2.5055962 -1.6098545 47
5.4681478 2.489203 -1.6098545 47
5.4769387 2.4932048 -1.6124426 41
5.4755907 2.4727874 -1.6098545 45
5.4843936 2.4767628 -1.6124426 46
5.4854379 2.4508653 -1.6098545 43
5.4854379 2.4508653 -1.6098545 42
5.5079823 2.4477348 -1.6150309 44
5.4903288 2.4398894 -1.6098545 47
5.5088868 2.4217961 -1.6124426 47
5.5000443 2.4179087 -1.6098545 42
5.5137191 2.4107735 -1.6124426 45
5.4960189 2.4030342 -1.6072663 48
5.5144525 2.384865 -1.6098545 53
5.5144525 2.384865 -1.6098545 51
5.5014644 2.3661985 -1.604678 47
5.5103378 2.3700149 -1.6072663 42
5.519774 2.3479548 -1.6072663 42
5.519774 2.3479548 -1.6072663 41
5.5178928 2.3276305 -1.604678 40
5.526793 2.3313849 -1.6072663 45
5.533762 2.3147941 -1.6072663 40
5.5426731 2.3185215 -1.6098545 44
5.5496039 2.3018832 -1.6098545 47
5.5317593 2.2944815 -1.604678 43
5.5296845 2.2742021 -1.6020899 41
5.5475512 2.2815499 -1.6072663 42
5.5387373 2.2520652 -1.6020899 41
5.5476851 2.2557034 -1.604678 44
5.5521855 2.2446034 -1.604678 38
5.5432305 2.2409832 -1.6020899 40
5.5611196 2.2223768 -1.604678 44
5.5521498 2.2187924 -1.6020899 44
5.5745296 2.2148168 -1.6072663 45
5.5655532 2.2112501 -1.604678 37
5.5833445 2.1925008 -1.6072663 50
5.5923352 2.1960316 -1.6098545 55
5.5967164 2.1848426 -1.6098545 52
5.5697222 2.1743047 -1.6020899 49
5.5873871 2.1554849 -1.604678 66
5.5783749 2.1520085 -1.6020899 54
5.5757837 2.131814 -1.5995017 51
5.584806 2.1352637 -1.6020899 55
5.5911865 2.1184995 -1.6020899 50
5.5911865 2.1184995 -1.6020899 44
5.5996161 2.096118 -1.6020899 45
5.6267543 2.106277 -1.6098545 49
5.6128497 2.0882828 -1.604678 45
5.603797 2.0849147 -1.6020899 46
5.6120915 2.0624828 -1.6020899 46
5.6030254 2.0591509 -1.5995017 47
5.6071324 2.0479407 -1.5995017 41
5.6162052 2.0512545 -1.6020899 45
5.6152792 2.0254958 -1.5995017 49
5.6152792 2.0254958 -1.5995017 55
5.6304264 2.0118911 -1.6020899 47
5.6213303 2.0086408 -1.5995017 44
5.6273313 1.9917679 -1.5995017 46
5.6364369 1.9949908 -1.6020899 46
5.6332812 1.974877 -1.5995017 44
5.6423965 1.9780725 -1.6020899 39
5.6483054 1.9611365 -1.6020899 44
5.6391802 1.9579682 -1.5995017 45
5.6358943 1.937901 -1.5969135 44
5.6541634 1.9441828 -1.6020899 47
5.6508265 1.9240981 -1.5995017 46
5.6599703 1.9272115 -1.6020899 40
5.6584778 1.9014795 -1.5995017 40
5.6767898 1.9076332 -1.604678 45
5.6714315 1.8932172 -1.6020899 37
5.6622696 1.8901588 -1.5995017 38
5.6697845 1.8674946 -1.5995017 43
5.6697845 1.8674946 -1.5995017 48
5.6661782 1.8474826 -1.5969135 46
5.6753616 1.8504769 -1.5995017 45
5.6900797 1.8364092 -1.6020899 49
5.6900797 1.8364092 -1.6020899 48
5.6863623 1.8163916 -1.5995017 41
5.6771612 1.8134525 -1.5969135 41
5.6917858 1.7993244 -1.5995017 42
5.6825757 1.7964128 -1.5969135 42
5.706377 1.7851248 -1.6020899 37
5.6971583 1.7822409 -1.5995017 38
5.6840248 1.759429 -1.5943253 44
5.6932521 1.7622852 -1.5969135 42
5.7077489 1.7480261 -1.5995017 46
5.698513 1.7451975 -1.5969135 46
5.703723 1.7280942 -1.5969135 47
5.7129674 1.730895 -1.5995017 50
5.7105899 1.7052655 -1.5969135 38
5.7105899 1.7052655 -1.5969135 46
5.7249436 1.6908622 -1.5995017 48
5.7249436 1.6908622 -1.5995017 44
5.7207184 1.6709715 -1.5969135 46
5.7299905 1.6736797 -1.5995017 47
5.7164259 1.6511215 -1.5943253 47
5.7257056 1.6538019 -1.5969135 52
5.7399292 1.6392698 -1.5995017 48
5.7306414 1.6366173 -1.5969135 45
5.7448211 1.6220428 -1.5995017 48
5.7448211 1.6220428 -1.5995017 41
5.7403579 1.6022042 -1.5969135 44
5.7217507 1.5970107 -1.5917372 43
5.7358274 1.5824071 -1.5943253 43
5.7451386 1.584976 -1.5969135 47
5.7498679 1.5677334 -1.5969135 47
5.7498679 1.5677334 -1.5969135 45
5.7654219 1.5472251 -1.5995017 45
5.7654219 1.5472251 -1.5995017 46
5.7420278 1.5224952 -1.5917372 50
5.7513642 1.5249707 -1.5943253 45
5.7652574 1.5101573 -1.5969135 51
5.7652574 1.5101573 -1.5969135 47
5.769762 1.4928548 -1.5969135 40
5.7604103 1.4904352 -1.5943253 45
5.7742143 1.4755388 -1.5969135 42
5.7742143 1.4755388 -1.5969135 49
5.778615 1.4582095 -1.5969135 60
5.778615 1.4582095 -1.5969135 69
5.7829638 1.4408672 -1.5969135 63
5.7829638 1.4408672 -1.5969135 48
5.7872601 1.4235119 -1.5969135 53
5.7966399 1.425819 -1.5995017 58
5.7915049 1.4061437 -1.5969135 52
5.7915049 1.4061437 -1.5969135 50
5.7863035 1.386512 -1.5943253 46
5.7956972 1.3887628 -1.5969135 59
5.8012056 1.365569 -1.5969135 48
5.8012056 1.365569 -1.5969135 43
5.7958674 1.3459743 -1.5943253 49
5.7958674 1.3459743 -1.5943253 61
5.7998796 1.3285806 -1.5943253 56
5.8092947 1.3307375 -1.5969135 69
5.8038392 1.311175 -1.5943253 66
5.8132606 1.3133036 -1.5969135 67
5.8266025 1.2979581 -1.5995017 65
5.8077464 1.2937577 -1.5943253 62
5.8116016 1.2763286 -1.5943253 47
5.8210359 1.2784005 -1.5969135 45
5.8248448 1.2609317 -1.5969135 45
5.8154044 1.2588881 -1.5943253 55
5.8203936 1.2356164 -1.5943253 58
5.8203936 1.2356164 -1.5943253 53
5.8323054 1.2259601 -1.5969135 52
5.8323054 1.2259601 -1.5969135 54
5.827702 1.200672 -1.5943253 45
5.837163 1.2026212 -1.5969135 51
5.830092 1.1890143 -1.5943253 49
5.8395562 1.1909446 -1.5969135 55
5.8348012 1.1656845 -1.5943253 57
5.8348012 1.1656845 -1.5943253 54
5.8572273 1.1519027 -1.5995017 53
5.8382721 1.1481749 -1.5943253 46
5.8416905 1.1306549 -1.5943253 41
5.8511734 1.1324904 -1.5969135 46
5.8450561 1.1131247 -1.5943253 50
5.8450561 1.1131247 -1.5943253 34
5.8483691 1.0955846 -1.5943253 28
5.8578634 1.0973631 -1.5969135 30
5.8516297 1.0780346 -1.5943253 40
5.8326306 1.0745345 -1.5891489 46
5.8453326 1.0587534 -1.5917372 51
5.8548374 1.0604749 -1.5943253 45
5.8590322 1.0370471 -1.5943253 51
5.8685436 1.0387306 -1.5969135 48
5.8706093 1.0269915 -1.5969135 41
5.8801241 1.028656 -1.5995017 43
5.865149 1.0018744 -1.5943253 38
5.865149 1.0018744 -1.5943253 34
5.8681283 0.98427451 -1.5943253 36
5.858602 0.98267668 -1.5917372 42
5.8615236 0.96509647 -1.5917372 41
5.8901167 0.96980429 -1.5995017 43
5.8739285 0.94904822 -1.5943253 46
5.8739285 0.94904822 -1.5943253 47
5.867209 0.92991018 -1.5917372 40
5.8862891 0.93293428 -1.5969135 44
5.8795171 0.91378778 -1.5943253 47
5.8699722 0.9123044 -1.5917372 43
5.8726826 0.89469039 -1.5917372 50
5.8822317 0.89614516 -1.5943253 44
5.8857694 0.87260914 -1.5943253 43
5.8762145 0.87119257 -1.5917372 40
5.8779449 0.85943842 -1.5917372 44
5.8875027 0.86083585 -1.5943253 44
5.8813357 0.8359198 -1.5917372 43
5.8908992 0.83727902 -1.5943253 45
5.8829961 0.82415545 -1.5917372 41
5.8829961 0.82415545 -1.5917372 49
5.8862453 0.80061698 -1.5917372 52
5.8862453 0.80061698 -1.5917372 53
5.8886209 0.78295463 -1.5917372 47
5.8886209 0.78295463 -1.5917372 49
5.8813643 0.76404095 -1.5891489 49
5.8909431 0.76528531 -1.5917372 50
5.8836303 0.74639344 -1.5891489 52
5.8932123 0.74760902 -1.5917372 51
5.9146008 0.7322998 -1.5969135 53
5.8858428 0.7287392 -1.5891489 50
5.8975921 0.71223652 -1.5917372 57
5.8975921 0.71223652 -1.5917372 49
5.8997021 0.69454056 -1.5917372 52
5.8997021 0.69454056 -1.5917372 49
5.9024334 0.67093629 -1.5917372 41
5.9120307 0.67202723 -1.5943253 42
5.913363 0.66020185 -1.5943253 57
5.9037633 0.65913004 -1.5917372 57
5.8967485 0.63447642 -1.5891489 52
5.887145 0.63344312 -1.5865607 51
5.898006 0.62268168 -1.5891489 48
5.898006 0.62268168 -1.5891489 46
5.8908396 0.59810907 -1.5865607 52
5.9100595 0.60006046 -1.5917372 50
5.9214454 0.58327448 -1.5943253 53
5.8926072 0.58043385 -1.5865607 46
5.9135532 0.5645895 -1.5917372 42
5.9039378 0.56367147 -1.5891489 44
5.905602 0.54595715 -1.5891489 43
5.9152203 0.54684633 -1.5917372 42
5.9072132 0.52823794 -1.5891489 37
5.9072132 0.52823794 -1.5891489 39
5.9189034 0.50542676 -1.5917372 42
5.9189034 0.50542676 -1.5917372 40
5.9006505 0.49198276 -1.5865607 40
5.9102764 0.49278533 -1.5891489 40
5.9218292 0.46990442 -1.5917372 36
5.9025712 0.46837628 -1.5865607 38
5.9131269 0.45731503 -1.5891489 42
5.9131269 0.45731503 -1.5891489 47
5.8956418 0.43224636 -1.5839726 42
5.9149089 0.43365893 -1.5891489 41
5.9061294 0.42114124 -1.5865607 46
5.9157643 0.42182824 -1.5891489 43
5.9077668 0.39751342 -1.5865607 36
5.8884916 0.39621648 -1.5813844 32
5.9185719 0.3804079 -1.5891489 36
5.8992934 0.37916878 -1.5839726 35
5.9100456 0.36205986 -1.5865607 46
5.9100456 0.36205986 -1.5865607 73
5.9111052 0.34432814 -1.5865607 75
5.9014621 0.34376642 -1.5839726 75
5.9121113 0.32659328 -1.5865607 70
5.9121113 0.32659328 -1.5865607 62
5.923017 0.30343649 -1.5891489 55
5.9037237 0.30244809 -1.5839726 59
5.8946695 0.29016516 -1.5813844 69
5.9043169 0.29064006 -1.5839726 54
5.9054322 0.26702052 -1.5839726 51
5.9150815 0.26745683 -1.5865607 51
5.9252553 0.25604314 -1.5891489 52
5.9156046 0.25562614 -1.5865607 35
5.9165802 0.23196174 -1.5865607 38
5.9069281 0.23158334 -1.5839726 38
5.9172492 0.21421099 -1.5865607 36
5.9075961 0.21386154 -1.5839726 41
5.9178653 0.19645829 -1.5865607 36
5.8985572 0.19581732 -1.5813844 37
5.9184279 0.17870384 -1.5865607 38
5.9087729 0.17841232 -1.5839726 47
5.9092817 0.16068523 -1.5839726 52
5.9092817 0.16068523 -1.5839726 63
5.9098773 0.13704687 -1.5839726 51
5.9098773 0.13704687 -1.5839726 44
5.9197965 0.12543148 -1.5865607 40
5.9101396 0.12522686 -1.5839726 44
5.9202509 0.10175135 -1.5865607 43
5.910593 0.10158536 -1.5839726 40
5.9107847 0.089763977 -1.5839726 43
5.9107847 0.089763977 -1.5839726 38
5.9207549 0.066228226 -1.5865607 34
5.9110961 0.066120185 -1.5839726 34
5.9208755 0.05438659 -1.5865607 37
5.9112167 0.054297868 -1.5839726 33
5.9210458 0.030702716 -1.5865607 38
5.9017277 0.030602545 -1.5813844 39
5.9211111 0.012939467 -1.5865607 46
6.7036662 -0 -1.5476632 109
6.7036357 -0.020110969 -1.5476632 109
6.7036357 -0.020110969 -1.5476632 109
6.6938019 -0.040163293 -1.5454137 109
6.7035456 -0.040221754 -1.5476632 111
6.7228174 -0.067230411 -1.5521623 109
6.7228174 -0.067230411 -1.5521623 109
6.7129264 -0.080558985 -1.5499128 109
6.7031832 -0.080442064 -1.5476632 109
6.7222929 -0.10756586 -1.5521623 109
6.7028079 -0.10725408 -1.5476632 109
6.70258 -0.12065947 -1.5476632 109
6.7220645 -0.12101023 -1.5521623 109
6.702044 -0.14746876 -1.5476632 111
6.7117853 -0.1476831 -1.5499128 111
6.7017355 -0.16087253 -1.5476632 111
6.7017355 -0.16087253 -1.5476632 111
6.6912985 -0.18740533 -1.5454137 109
6.7010384 -0.18767813 -1.5476632 109
6.719923 -0.20838438 -1.5521623 109
6.7004452 -0.20778036 -1.5476632 111
6.6997919 -0.22788073 -1.5476632 109
6.7192678 -0.22854318 -1.5521623 109
6.6988268 -0.25467801 -1.5476632 109
6.6988268 -0.25467801 -1.5476632 109
6.6983037 -0.26807514 -1.5476632 109
6.7177758 -0.26885444 -1.5521623 109
6.6971779 -0.29486614 -1.5476632 111
6.706912 -0.29529473 -1.5499128 109
6.6965747 -0.3082599 -1.5476632 104
6.7063084 -0.30870795 -1.5499128 109
6.7147512 -0.33601764 -1.5521623 109
6.70502 -0.33553064 -1.5499128 109
6.6946049 -0.34843355 -1.5476632 111
6.7043352 -0.34894001 -1.5499128 111
6.7028861 -0.37575448 -1.5499128 109
6.7028861 -0.37575448 -1.5499128 109
6.6822748 -0.39471233 -1.5454137 111
6.6822748 -0.39471233 -1.5454137 111
6.6907859 -0.41536108 -1.5476632 111
6.6907859 -0.41536108 -1.5476632 111
6.718679 -0.43733022 -1.5544118 112
6.6992326 -0.43606442 -1.5499128 111
6.7076154 -0.45682219 -1.5521623 111
6.7076154 -0.45682219 -1.5521623 111
6.6862974 -0.48224705 -1.5476632 111
6.6862974 -0.48224705 -1.5476632 111
6.6756029 -0.49489829 -1.5454137 111
6.7047539 -0.4970594 -1.5521623 111
6.6929979 -0.52311516 -1.5499128 111
6.6735697 -0.52159667 -1.5454137 111
6.6919384 -0.5365001 -1.5499128 109
6.672513 -0.53494275 -1.5454137 109
6.6606107 -0.56081092 -1.5431643 109
6.6800294 -0.56244594 -1.5476632 111
6.6691833 -0.57496798 -1.5454137 111
6.6691833 -0.57496798 -1.5454137 111
6.6765347 -0.60251576 -1.5476632 111
6.6571259 -0.60076427 -1.5431643 111
6.6746969 -0.62254262 -1.5476632 111
6.6746969 -0.62254262 -1.5476632 109
6.6727991 -0.64256388 -1.5476632 111
6.6727991 -0.64256388 -1.5476632 111
6.6708417 -0.66257936 -1.5476632 111
6.6611457 -0.66161633 -1.5454137 111
6.6494379 -0.68060464 -1.5431643 111
6.6688237 -0.68258888 -1.5476632 112
6.6660399 -0.70925868 -1.5476632 112
6.6757293 -0.71028954 -1.5499128 112
6.6742949 -0.72363961 -1.5499128 112
6.6646085 -0.72258931 -1.5476632 111
6.6616645 -0.74924189 -1.5476632 111
6.6616645 -0.74924189 -1.5476632 111
6.6698332 -0.76367211 -1.5499128 111
6.6601529 -0.76256371 -1.5476632 112
6.6764011 -0.79149234 -1.5521623 114
6.6764011 -0.79149234 -1.5521623 112
6.6836691 -0.81269407 -1.5544118 112
6.6933417 -0.81387019 -1.5566612 112
6.681201 -0.83274138 -1.5544118 112
6.681201 -0.83274138 -1.5544118 112
6.6690073 -0.85154706 -1.5521623 112
6.6690073 -0.85154706 -1.5521623 112
6.6664228 -0.87155026 -1.5521623 112
6.676084 -0.87281334 -1.5544118 114
6.6628833 -0.89820886 -1.5521623 114
6.6628833 -0.89820886 -1.5521623 114
6.6707273 -0.9128539 -1.5544118 114
6.6707273 -0.9128539 -1.5544118 114
6.6477256 -0.93681008 -1.5499128 114
6.676671 -0.94088912 -1.5566612 115
6.6651301 -0.95286161 -1.5544118 114
6.6651301 -0.95286161 -1.5544118 115
6.6419854 -0.97667938 -1.5499128 114
6.6612654 -0.97951442 -1.5544118 115
6.6303816 -0.98852456 -1.5476632 112
6.6400185 -0.98996139 -1.5499128 112
6.6552682 -1.0194641 -1.5544118 114
6.6648998 -1.0209395 -1.5566612 114
6.6329265 -1.0364169 -1.5499128 112
6.6521802 -1.0394254 -1.5544118 114
6.6201649 -1.0547779 -1.5476632 112
6.629787 -1.0563109 -1.5499128 114
6.6362062 -1.0777575 -1.5521623 114
6.6265883 -1.0761955 -1.5499128 114
6.6425557 -1.0992521 -1.5544118 115
6.6425557 -1.0992521 -1.5544118 115
6.6381059 -1.1258134 -1.5544118 114
6.6381059 -1.1258134 -1.5544118 112
6.6166344 -1.1357905 -1.5499128 112
6.6262374 -1.1374389 -1.5521623 114
6.6120381 -1.1622478 -1.5499128 114
6.6120381 -1.1622478 -1.5499128 112
6.6097007 -1.1754695 -1.5499128 114
6.6192937 -1.1771756 -1.5521623 114
6.6241183 -1.2053877 -1.5544118 114
6.614532 -1.2036433 -1.5521623 112
6.5929461 -1.2133428 -1.5476632 112
6.602529 -1.2151064 -1.5499128 114
6.5976157 -1.2415067 -1.5499128 114
6.5976157 -1.2415067 -1.5499128 114
6.6034317 -1.2631246 -1.5521623 114
6.6130018 -1.2649552 -1.5544118 114
6.6091771 -1.2847885 -1.5544118 114
6.6091771 -1.2847885 -1.5544118 114
6.6052933 -1.3046101 -1.5544118 114
6.6052933 -1.3046101 -1.5544118 114
6.5917964 -1.3225034 -1.5521623 114
6.5917964 -1.3225034 -1.5521623 114
6.5864534 -1.34886 -1.5521623 114
6.6055446 -1.3527697 -1.5566612 114
6.5646591 -1.3580823 -1.5476632 114
6.5742011 -1.3600563 -1.5499128 114
6.5687079 -1.386342 -1.5499128 114
6.5782418 -1.3883542 -1.5521623 112
6.5754519 -1.4015079 -1.5521623 112
6.5849814 -1.4035391 -1.5544118 114
6.5793147 -1.4298677 -1.5544118 114
6.5793147 -1.4298677 -1.5544118 114
6.585959 -1.4451118 -1.5566612 114
6.5669246 -1.4409351 -1.5521623 114
6.5706172 -1.4693176 -1.5544118 115
6.5706172 -1.4693176 -1.5544118 114
6.5471749 -1.4847131 -1.5499128 114
6.5471749 -1.4847131 -1.5499128 114
6.552187 -1.5065312 -1.5521623 114
6.5616832 -1.5087147 -1.5544118 114
6.5461087 -1.5327278 -1.5521623 114
6.5366216 -1.5305065 -1.5499128 114
6.5619955 -1.5502976 -1.5566612 114
6.5335474 -1.5435767 -1.5499128 114
6.5557418 -1.5765332 -1.5566612 114
6.546268 -1.5742549 -1.5544118 112
6.5336375 -1.5850471 -1.5521623 111
6.5241685 -1.58275 -1.5499128 111
6.5177851 -1.6088339 -1.5499128 111
6.527245 -1.611169 -1.5521623 109
6.5050993 -1.6195123 -1.5476632 96
6.5240097 -1.6242203 -1.5521623 94
6.5080152 -1.6479114 -1.5499128 91
6.5174603 -1.6503031 -1.5521623 94
6.5047059 -1.6609242 -1.5499128 94
6.4952655 -1.6585135 -1.5476632 102
6.4885793 -1.6844813 -1.5476632 104
6.4980102 -1.6869296 -1.5499128 100
6.4929204 -1.706416 -1.5499128 101
6.4929204 -1.706416 -1.5499128 103
6.4783559 -1.7233821 -1.5476632 103
6.4971881 -1.728392 -1.5521623 109
6.4714103 -1.7492818 -1.5476632 109
6.4996285 -1.7569094 -1.5544118 111
6.4772997 -1.7647824 -1.5499128 111
6.4961019 -1.7699052 -1.5544118 111
6.4795794 -1.7932764 -1.5521623 109
6.4701891 -1.7906774 -1.5499128 109
6.4665947 -1.8036143 -1.5499128 111
6.4853654 -1.8088497 -1.5544118 111
6.4687033 -1.8321214 -1.5521623 109
6.4593287 -1.8294661 -1.5499128 104
6.4743958 -1.8477291 -1.5544118 109
6.4743958 -1.8477291 -1.5544118 109
6.4669533 -1.8736118 -1.5544118 109
6.4575944 -1.8709004 -1.5521623 109
6.435133 -1.8783514 -1.5476632 101
6.4538398 -1.8838118 -1.5521623 109
6.455595 -1.9123796 -1.5544118 109
6.427568 -1.9040769 -1.5476632 109
6.4311609 -1.9261466 -1.5499128 111
6.4218268 -1.923351 -1.5476632 111
6.434679 -1.9482549 -1.5521623 111
6.434679 -1.9482549 -1.5521623 111
6.4361486 -1.9768388 -1.5544118 111
6.4268346 -1.973978 -1.5521623 109
6.4135652 -1.9839482 -1.5499128 111
6.422874 -1.9868277 -1.5521623 111
6.4055781 -2.0095866 -1.5499128 111
6.3962812 -2.00667 -1.5476632 112
6.401546 -2.0223937 -1.5499128 111
6.4201283 -2.0282643 -1.5544118 112
6.3934054 -2.0479836 -1.5499128 111
6.4119639 -2.0539284 -1.5544118 111
6.3892965 -2.0607662 -1.5499128 109
6.3892965 -2.0607662 -1.5499128 111
6.3624802 -2.080251 -1.5454137 111
6.3717413 -2.0832789 -1.5476632 111
6.3747149 -2.1054406 -1.5499128 112
6.3654628 -2.1023848 -1.5476632 111
6.359127 -2.1214716 -1.5476632 111
6.359127 -2.1214716 -1.5476632 111
6.3598208 -2.1500115 -1.5499128 109
6.3505902 -2.1468911 -1.5476632 109
6.3462839 -2.1595881 -1.5476632 98
6.3462839 -2.1595881 -1.5476632 94
6.3375945 -2.1849558 -1.5476632 93
6.328383 -2.1817801 -1.5454137 103
6.3608279 -2.2072093 -1.5544118 109
6.3516226 -2.204015 -1.5521623 111
6.3151784 -2.2197108 -1.5454137 111
6.3519483 -2.2326348 -1.5544118 112
6.3382845 -2.242085 -1.5521623 111
6.3199124 -2.2355862 -1.5476632 111
6.3109198 -2.2608478 -1.5476632 111
6.3109198 -2.2608478 -1.5476632 111
6.324718 -2.2800741 -1.5521623 111
6.2972188 -2.2701607 -1.5454137 104
6.3063941 -2.3020134 -1.5499128 96
6.3063941 -2.3020134 -1.5499128 92
6.2994595 -2.3209224 -1.5499128 96
6.2994595 -2.3209224 -1.5499128 95
6.2833357 -2.3364143 -1.5476632 96
6.2833357 -2.3364143 -1.5476632 109
6.2854209 -2.3586771 -1.5499128 109
6.276298 -2.3552537 -1.5476632 98
6.2692041 -2.3740721 -1.5476632 102
6.2783165 -2.3775227 -1.5499128 109
6.2687559 -2.4026167 -1.5499128 111
6.2505593 -2.3956425 -1.5454137 101
6.2457557 -2.408139 -1.5454137 109
6.2639384 -2.4151495 -1.5499128 109
6.2451506 -2.4366443 -1.5476632 102
6.2451506 -2.4366443 -1.5476632 97
6.2402644 -2.4491296 -1.5476632 103
6.2493348 -2.4526894 -1.5499128 96
6.2394738 -2.4776671 -1.5499128 89
6.2394738 -2.4776671 -1.5499128 87
6.2345061 -2.4901412 -1.5499128 89
6.2345061 -2.4901412 -1.5499128 85
6.2244959 -2.5150592 -1.5499128 79
6.2244959 -2.5150592 -1.5499128 84
6.2259459 -2.5373986 -1.5521623 81
6.2078996 -2.5300438 -1.5476632 79
6.2092934 -2.5523605 -1.5499128 78
6.2092934 -2.5523605 -1.5499128 78
6.2016087 -2.570977 -1.5499128 86
6.1926074 -2.5672455 -1.5476632 84
6.2028575 -2.5933287 -1.5521623 88
6.1848779 -2.5858119 -1.5476632 90
6.1770926 -2.6043546 -1.5476632 83
6.1860709 -2.6081402 -1.5499128 92
6.1782188 -2.6266866 -1.5499128 95
6.1782188 -2.6266866 -1.5499128 91
6.1497593 -2.643682 -1.5454137 93
6.158711 -2.6475303 -1.5476632 83
6.1534038 -2.6598423 -1.5476632 90
6.1623478 -2.6637084 -1.5499128 100
6.1337867 -2.6805329 -1.5454137 109
6.142715 -2.6844347 -1.5476632 109
6.134634 -2.7028506 -1.5476632 109
6.134634 -2.7028506 -1.5476632 111
6.1175933 -2.7172871 -1.5454137 111
6.1175933 -2.7172871 -1.5454137 111
6.0738425 -2.7196996 -1.5364157 109
6.0916281 -2.7276635 -1.5409148 111
6.0834179 -2.7459261 -1.5409148 111
6.0656557 -2.7379088 -1.5364157 112
6.0662837 -2.7601287 -1.5386652 111
6.0396771 -2.748023 -1.5319167 109
6.0402627 -2.7701914 -1.5341662 112
6.0579762 -2.7783151 -1.5386652 117
6.0319247 -2.7882998 -1.5341662 117
6.0407696 -2.7923882 -1.5364157 112
6.0147009 -2.802268 -1.5319167 112
6.0058684 -2.7981532 -1.5296671 112
5.9886274 -2.8120167 -1.5274177 112
5.997447 -2.8161581 -1.5296671 115
5.9801645 -2.8299699 -1.5274177 114
5.9625497 -2.8216341 -1.5229186 91
5.9512157 -2.8454618 -1.5229186 46
5.9512157 -2.8454618 -1.5229186 43
5.9426522 -2.8633025 -1.5229186 41
5.9514303 -2.867532 -1.5251682 47
5.9165053 -2.8726063 -1.5184196 32
5.9077401 -2.8683505 -1.5161701 35
5.9078608 -2.8903427 -1.5184196 38
5.8991084 -2.8860607 -1.5161701 55
5.8991632 -2.9080534 -1.5184196 58
5.8904238 -2.9037449 -1.5161701 46
